# .PCD v0.7 - Point Cloud Data file format
VERSION 0.7
FIELDS x y z rgb
SIZE 4 4 4 4
TYPE F F F U
COUNT 1 1 1 1
WIDTH 1067
HEIGHT 1
VIEWPOINT 0 0 0 1 0 0 0
POINTS 1067
DATA ascii
0.36208853 0.14759596 0.093779266 4288256146
0.3596133 0.15293849 0.091207236 4288782490
0.36073318 0.15245672 0.093098551 4288453527
0.35962892 0.15750892 0.091082804 4287992205
0.361893 0.15785398 0.093631186 4288057741
0.35925469 0.16241182 0.091016561 4288979871
0.36134511 0.16257961 0.093485452 4288387734
0.35927036 0.16786058 0.091550864 4288979099
0.36127111 0.1670806 0.093762867 4288782234
0.35891339 0.17235062 0.091675401 4288913561
0.36084944 0.17222592 0.09391284 4288913816
0.35893241 0.17757848 0.092163451 4289966506
0.36136073 0.17925717 0.094784208 4289637540
0.35792643 0.18230706 0.091813415 4289374111
0.36089882 0.18231608 0.094517142 4289505697
0.35810912 0.18754484 0.092716731 4289044373
0.35755125 0.19271751 0.092454113 4288978581
0.35690805 0.19773386 0.092531182 4288978840
0.35425854 0.20378697 0.090806 4287661954
0.35636207 0.20226853 0.093210965 4287465090
0.35381553 0.20780107 0.091054678 4288254089
0.35572919 0.20709111 0.093572095 4287465601
0.35312328 0.21292329 0.092431404 4288583569
0.35513675 0.21068437 0.094181761 4286806899
0.34885952 0.21853392 0.090994798 4286017128
0.3513546 0.21708837 0.093117252 4289570720
0.34838173 0.22246191 0.091917425 4286150002
0.35021433 0.22234072 0.094356127 4288847510
0.34830949 0.22726451 0.091537431 4286479997
0.35076728 0.22897647 0.094379894 4288716699
0.34899592 0.23291016 0.091554306 4288716443
0.35075524 0.23232573 0.094258241 4288913820
0.3483654 0.23744698 0.091386952 4288848027
0.35080168 0.23741724 0.094157003 4288782491
0.34886298 0.24239987 0.092076018 4289044381
0.35136047 0.24262868 0.094713874 4288979101
0.34881192 0.24738967 0.09180861 4288651683
0.3514072 0.24776141 0.094611816 4288585118
0.34855041 0.25258508 0.091617443 4288058254
0.35095954 0.25280815 0.094378255 4289045408
0.34814656 0.25741422 0.092446692 4288320398
0.35047853 0.25556546 0.094426326 4289504158
0.33302435 0.26423517 0.094407752 4285293389
0.33703032 0.26451147 0.0944454 4289239687
0.34764552 0.26253811 0.092825972 4286741623
0.32978755 0.26938736 0.090128131 4282731089
0.33222151 0.26743639 0.0926921 4284965981
0.33755565 0.26724482 0.092033572 4292204746
0.34282559 0.26764104 0.092560627 4288718237
0.34645808 0.26632431 0.092449516 4284439132
0.32980818 0.27164906 0.09008316 4283652958
0.33221307 0.2724711 0.0929306 4286086007
0.33468583 0.2767207 0.093300007 4288256143
0.33714953 0.27869049 0.094353728 4288189579
0.35749972 0.33320668 0.092171364 4287399554
0.35816514 0.3374536 0.092544138 4287860876
0.35824707 0.34247875 0.092078552 4288255377
0.35409376 0.34966817 0.090917386 4292466899
0.35753676 0.34763655 0.092637733 4290163890
0.35270697 0.35258862 0.092335321 4294242027
0.35615432 0.35119268 0.093998544 4294639097
0.35328466 0.35549033 0.094474174 4293846757
0.36495292 -0.29672927 0.096300818 4284699478
0.36623004 -0.29768285 0.097252749 4285227364
0.36368906 -0.29113707 0.095804624 4289245623
0.36666501 -0.29217121 0.099046968 4285096808
0.36402228 -0.28716353 0.096420392 4289377469
0.36672753 -0.28755423 0.099306501 4288324267
0.36418217 -0.28282553 0.09578082 4290695388
0.36697009 -0.28226405 0.098232873 4290562771
0.36661288 -0.27772942 0.097446658 4290562777
0.36649764 -0.27229056 0.097549602 4291024360
0.36654505 -0.2673043 0.097588703 4290958566
0.36402532 -0.26163906 0.095522776 4292668916
0.3658857 -0.26234585 0.097788572 4291154653
0.36359984 -0.25716963 0.096358135 4291549405
0.36547843 -0.25776955 0.09861213 4292076262
0.36278906 -0.25240389 0.097132437 4291155678
0.3651253 -0.25406313 0.09954197 4290761436
0.35939115 -0.24724804 0.095397949 4292470766
0.36187121 -0.24759386 0.097971044 4291879143
0.35908294 -0.24221435 0.096310414 4290825422
0.3610698 -0.24303213 0.098378874 4290628302
0.35857758 -0.23748678 0.096487947 4289311673
0.36109376 -0.23758288 0.098756403 4290167499
0.35798609 -0.23247311 0.096541323 4292141544
0.36145651 -0.23328416 0.099494718 4290760148
0.35457513 -0.2261475 0.095001303 4290101953
0.35763392 -0.22752681 0.09754394 4289969858
0.36031571 -0.22985572 0.099496536 4291154904
0.3563762 -0.22234875 0.09728805 4289838016
0.35435176 -0.2167941 0.0959149 4290496714
0.35707289 -0.21770629 0.09828645 4290891731
0.3536413 -0.21261972 0.095784619 4289772224
0.35670435 -0.21305956 0.098971285 4290035911
0.35321814 -0.20745596 0.096997045 4290891989
0.35549891 -0.20788991 0.099246569 4290628304
0.35243058 -0.20249213 0.097297139 4289838783
0.35549462 -0.20486772 0.099787734 4290957526
0.3525238 -0.19747967 0.096992515 4284638822
0.35559464 -0.19669044 0.099144131 4286678664
0.35390174 -0.19258733 0.096280701 4289046698
0.35633108 -0.19222181 0.098524794 4289112491
0.3541438 -0.18737032 0.095542662 4288322718
0.35642925 -0.1875308 0.098127373 4289508020
0.35488868 -0.18245886 0.095732689 4288125339
0.35637307 -0.18254614 0.097945012 4287928473
0.35493252 -0.17765267 0.09563712 4287927448
0.35675579 -0.17742798 0.098066598 4289310128
0.35496536 -0.17404807 0.095565446 4289310384
0.35773122 -0.17241824 0.098046377 4289837243
0.35858479 -0.1674393 0.097561933 4289639605
0.35894915 -0.16240497 0.097752772 4289902777
0.35865003 -0.15736751 0.097457446 4290034877
0.35891449 -0.15233222 0.097577758 4289178541
0.35904938 -0.14820454 0.096839935 4289573297
0.36028847 -0.14663956 0.098499879 4288651424
0.35919774 -0.14451103 0.095782541 4289769650
0.36039653 -0.14215004 0.097319558 4289638062
0.36214757 -0.13743611 0.097390704 4289309867
0.36355004 -0.1333669 0.096907534 4290889403
0.36525571 -0.13178858 0.098888248 4289638310
0.36610529 -0.12994123 0.099936552 4287206025
0.36125112 -0.11549483 0.099247016 4287534739
0.35247219 -0.11114525 0.095491961 4289180847
0.35602054 -0.11239086 0.097635239 4287995289
0.35304269 -0.10743638 0.097227275 4287007362
0.35536116 -0.10507 0.098594181 4286018928
0.35346946 -0.10460598 0.096566387 4288125069
0.35622284 -0.10375597 0.097994894 4285229923
0.36134806 -0.10251335 0.09939298 4284176724
0.36066565 -0.091023922 0.095120132 4283387197
0.36135098 -0.087521292 0.095317893 4286940540
0.35982883 -0.070605785 0.095119543 4282269246
0.3617653 -0.0719041 0.097436942 4284244310
0.35985091 -0.068183191 0.09507136 4282794040
0.36272767 -0.067657739 0.097559318 4285557340
0.36561173 -0.067098111 0.099915147 4291544504
0.35988039 -0.064953081 0.095007129 4282991162
0.36277866 -0.062488127 0.097383514 4284835166
0.35987991 -0.055633668 0.096434914 4285163620
0.36211297 -0.057907574 0.09741506 4285164391
0.35899615 -0.051622022 0.096714683 4285952363
0.36117503 -0.052560728 0.098448403 4284045137
0.35777262 -0.047276057 0.097315311 4286280807
0.36074325 -0.049641948 0.099954464 4283651400
0.35822192 -0.042359255 0.097675115 4288978317
0.35965824 -0.039429933 0.096783936 4288057220
0.36151335 -0.037069317 0.097569913 4286282356
0.36309063 -0.032500658 0.097634889 4284704100
0.36313635 -0.027907858 0.09694609 4284771180
0.36595976 -0.026817124 0.099476978 4286546303
0.36346102 -0.022659188 0.09723781 4285362290
0.36515397 -0.022483198 0.099144384 4287072645
0.36233765 -0.017678132 0.097226396 4283653218
0.36502543 -0.019202035 0.099369816 4287468433
0.3587766 -0.012658578 0.09802635 4285821292
0.36071411 -0.01371862 0.098883219 4288651672
0.35189551 -0.0069098803 0.097523965 4284577400
0.35540903 -0.0088465093 0.099735074 4284376939
0.35213026 -0.0023873178 0.09723492 4283459435
0.35511971 -0.0032283592 0.09975037 4283788659
0.3526392 0.0023947826 0.09611924 4283130734
0.35700136 0.0023763939 0.099110737 4281616212
0.3538222 0.0080461036 0.096252955 4282009942
0.35866541 0.0074174632 0.099253125 4281353812
0.35269839 0.012724264 0.095899068 4286679955
0.35835001 0.012343261 0.099308446 4283851629
0.3514958 0.015110798 0.095333986 4283260009
0.35731292 0.015534167 0.099012733 4281945949
0.35171789 0.044067949 0.095550127 4281946459
0.35399911 0.046757787 0.09610562 4282144097
0.35668254 0.049161453 0.097127467 4281880668
0.35481456 0.052190091 0.095042206 4282209634
0.35798302 0.052686322 0.097420223 4281946204
0.35822424 0.057127852 0.09686593 4282276712
0.36105093 0.057957821 0.099181809 4281156431
0.35934639 0.062348478 0.096836835 4281219907
0.36157769 0.06294585 0.098977648 4280232497
0.35793671 0.067649528 0.095170557 4281352007
0.36133075 0.067251071 0.098255135 4280232238
0.35798061 0.072465457 0.095074803 4281089603
0.36161938 0.072411343 0.098213822 4280167475
0.35939401 0.07705617 0.095558725 4280958277
0.36217991 0.077596553 0.098110251 4280826434
0.36238527 0.082715034 0.097506851 4282143581
0.36226878 0.087628104 0.096982621 4282207828
0.36332634 0.092557214 0.097256303 4283127643
0.36358914 0.096637137 0.096855529 4285101174
0.3653599 0.098582126 0.098382615 4284114543
0.36319312 0.10221547 0.095727764 4286152321
0.36564851 0.10257825 0.098360889 4283193956
0.36340103 0.10711148 0.095698625 4287270288
0.36583385 0.10746697 0.098415829 4283983728
0.36430368 0.11253051 0.095236413 4287402129
0.36645046 0.11278098 0.09781114 4285167228
0.3643378 0.11795243 0.095418386 4287138188
0.36667389 0.11742811 0.098123692 4284246643
0.36368379 0.12256368 0.095864736 4285493881
0.36689124 0.12271987 0.098840043 4282536284
0.36310121 0.12786371 0.096210577 4283390564
0.36656362 0.12737499 0.098947085 4282010967
0.36340615 0.13264358 0.09633822 4284113253
0.36583737 0.13246581 0.099027477 4284116598
0.3635323 0.13752906 0.096275307 4284705649
0.36630642 0.13786903 0.099097878 4282603358
0.36351994 0.14277083 0.095731132 4286678920
0.36661828 0.14256172 0.098650947 4284640884
0.36340067 0.14759062 0.095566817 4287664524
0.36680508 0.14746884 0.098707087 4285955198
0.36377308 0.15281211 0.096262783 4287071621
0.36706275 0.15224123 0.099039316 4285954685
0.36401102 0.15738057 0.09646897 4287598477
0.36646339 0.15745299 0.099115789 4285954173
0.36461547 0.16254872 0.096965872 4287532684
0.36595052 0.1625855 0.098776154 4286809478
0.36349791 0.16761705 0.096593626 4288124822
0.36594987 0.16747417 0.098992936 4286875016
0.36286709 0.17266484 0.096402511 4288979867
0.36578861 0.17277053 0.099481925 4288585626
0.36279696 0.17777221 0.096748509 4289505696
0.36559516 0.17673132 0.09953627 4289242781
0.36314851 0.18243164 0.097577415 4289440162
0.36246988 0.18737589 0.097424485 4289307548
0.35992384 0.19448659 0.095870927 4289834153
0.36181113 0.1925195 0.097753204 4289045146
0.35929722 0.19747475 0.096002229 4288979100
0.36138892 0.197383 0.098679461 4288189328
0.35886809 0.20267624 0.097147785 4287860363
0.36081472 0.20181598 0.099073939 4287991949
0.35788742 0.20748016 0.09733738 4287794827
0.35408044 0.21422085 0.095756717 4287004541
0.3568325 0.21226989 0.097781815 4288386962
0.35373899 0.2180786 0.097035363 4288057484
0.35605693 0.21614864 0.098438695 4286939521
0.35283747 0.2224464 0.097271346 4289899685
0.35304779 0.22734274 0.097642116 4289965995
0.3529976 0.2325471 0.097505443 4288452241
0.35303584 0.2373323 0.09738972 4288716185
0.35305837 0.2424957 0.097541347 4288715930
0.35264367 0.2476313 0.097328193 4289703597
0.35251996 0.25241819 0.097489104 4288650136
0.34421086 0.25976393 0.099956937 4284901989
0.3494688 0.25902608 0.095111035 4285490269
0.35138005 0.25749919 0.097688243 4288912536
0.33370247 0.26313016 0.095616437 4289308817
0.33778325 0.26294452 0.096535675 4288779915
0.3424404 0.26258916 0.097718686 4291942352
0.34766573 0.2623387 0.097184867 4285294948
0.35057095 0.2605944 0.098173335 4286609781
0.34415635 0.26547194 0.095553108 4289704360
0.34549001 0.26563847 0.095608063 4289441188
0.33353448 0.27317578 0.095591076 4286873463
0.33750412 0.27728927 0.096899562 4285886827
0.34343699 0.28216496 0.099069811 4286216050
0.36007002 0.33424479 0.095481232 4288123534
0.3620272 0.33744857 0.097531937 4287663241
0.36196044 0.34258941 0.097299635 4288255893
0.3620857 0.34783986 0.097309247 4288781463
0.35786179 0.35261932 0.096641473 4293453539
0.36168358 0.35215983 0.098806046 4288583829
0.35676929 0.35653013 0.097717479 4294043618
0.36001006 0.35561302 0.099866413 4291215805
0.36929584 -0.30043855 0.10287516 4290758855
0.36870235 -0.2973181 0.10250481 4290100662
0.36879542 -0.29260367 0.10247607 4283844420
0.37054393 -0.29285979 0.10477469 4285293917
0.36915672 -0.28782147 0.1021894 4287730585
0.37093741 -0.28659803 0.10370045 4287929760
0.36874464 -0.28284109 0.10073671 4288917687
0.37150297 -0.28233561 0.10339594 4288587443
0.36889663 -0.2776866 0.10036987 4290826466
0.37142482 -0.27753142 0.10308149 4290957793
0.36894187 -0.27273419 0.1002714 4290893033
0.37136355 -0.27275264 0.10299665 4290959079
0.36963353 -0.26769492 0.10132553 4290562518
0.37179694 -0.26774237 0.10384875 4289969606
0.3690547 -0.26228973 0.10144921 4291814380
0.37139887 -0.2625761 0.10404795 4292472307
0.36845264 -0.25765687 0.10234931 4291617002
0.37082806 -0.25929102 0.10452101 4290431187
0.36741433 -0.25254518 0.10264233 4290959073
0.36413366 -0.24819142 0.10025095 4291352032
0.3660149 -0.24768229 0.102625 4291089117
0.36411741 -0.24285418 0.10136924 4290563284
0.36633742 -0.24224423 0.10366601 4290893022
0.36309114 -0.23751016 0.10093405 4290431184
0.36603391 -0.23746642 0.10382081 4290826969
0.36294094 -0.23212846 0.10194512 4289049018
0.36538172 -0.23324603 0.10417163 4290629334
0.36212063 -0.22738947 0.10225927 4288258472
0.36119607 -0.22267801 0.10176348 4290825947
0.3589277 -0.21814653 0.10047497 4291089630
0.36237192 -0.21714287 0.10357573 4290364361
0.35916427 -0.21196075 0.10190162 4290101447
0.36123267 -0.21320397 0.10362607 4289706432
0.35835439 -0.2081735 0.1020126 4290759891
0.3608301 -0.20731512 0.10456047 4290365132
0.35764989 -0.20236477 0.1020183 4290760144
0.36028183 -0.20299289 0.10422606 4290759632
0.3584514 -0.19715777 0.10185904 4288126623
0.36103043 -0.19762063 0.10441501 4288981934
0.35888928 -0.19299933 0.10149637 4288388513
0.36098 -0.1918359 0.10354673 4290100414
0.35898069 -0.18692657 0.1015266 4289376948
0.36116919 -0.18799998 0.10393483 4289902778
0.35892165 -0.18249887 0.10151473 4287401360
0.3604598 -0.18190718 0.10407671 4287137416
0.35919112 -0.17760387 0.10137381 4290231744
0.36136428 -0.1773822 0.10423158 4290297794
0.35968593 -0.17265788 0.10118832 4289245106
0.36170664 -0.17224281 0.10343555 4289639866
0.3597523 -0.1653755 0.10104351 4289967542
0.36146465 -0.1677881 0.10272332 4290100157
0.35977077 -0.16335262 0.1010033 4289374893
0.36168495 -0.1620179 0.10288009 4288980650
0.36181656 -0.15738972 0.10299208 4289573814
0.35989165 -0.1524373 0.10038215 4289574068
0.36279878 -0.15248223 0.10326122 4289573811
0.35992485 -0.1487961 0.10030975 4289508018
0.36296156 -0.14717704 0.10285293 4289178541
0.36312094 -0.14247723 0.10221463 4289046956
0.36579236 -0.1405037 0.10423613 4288915883
0.36400351 -0.13761069 0.10158215 4289376176
0.36602277 -0.13691784 0.10386865 4289178285
0.36497077 -0.13423997 0.10179443 4290230971
0.3665075 -0.13229308 0.10269817 4289112229
0.36802542 -0.12753463 0.10245636 4287861643
0.36955398 -0.12327012 0.10336613 4285690734
0.37065339 -0.12312468 0.10333958 4285823090
0.36261192 -0.11564316 0.10189319 4287794827
0.36637068 -0.11843351 0.10298028 4287072647
0.35851809 -0.1115099 0.10103435 4286676087
0.36199382 -0.11291417 0.10306943 4288188808
0.35779613 -0.10728257 0.10090311 4286939769
0.36027202 -0.10749567 0.10319471 4289439900
0.35875791 -0.10389183 0.10081774 4285822321
0.36195275 -0.10327094 0.10256658 4284703838
0.36717111 -0.10148787 0.10305218 4282793785
0.37011921 -0.10048703 0.10426597 4281608996
0.3692143 -0.099460438 0.10260053 4281675046
0.37163562 -0.09752728 0.1038172 4283715917
0.37416366 -0.093937092 0.10453285 4284110932
0.37583819 -0.091796815 0.1047542 4286151284
0.36821976 -0.071466371 0.10295055 4287006853
0.37033826 -0.074065812 0.10415279 4288915362
0.36812273 -0.068733968 0.10267698 4287400067
0.37040222 -0.067049898 0.10401328 4292664018
0.36671317 -0.056189537 0.10178915 4287268732
0.36317325 -0.051399823 0.10212671 4286086257
0.36716703 -0.053772952 0.10351891 4288653212
0.35878664 -0.046419155 0.10193463 4284506206
0.36179748 -0.049114123 0.10323886 4287862414
0.35769758 -0.042339534 0.10234485 4286874496
0.36176762 -0.040026557 0.10098556 4290821036
0.36294773 -0.038372573 0.1021605 4288716694
0.36618656 -0.036426004 0.1031858 4285494646
0.36484113 -0.03468284 0.10049229 4284046427
0.3677676 -0.032494679 0.10302276 4286546043
0.36840007 -0.027284117 0.10296468 4287071872
0.36737975 -0.022205492 0.10251798 4287861134
0.36430785 -0.016816134 0.10067644 4282994002
0.36638978 -0.017608181 0.1031597 4283980634
0.35878599 -0.011111823 0.10117793 4282466375
0.36248487 -0.012936818 0.10291097 4282468173
0.3658123 -0.014275724 0.10417067 4282402633
0.35796666 -0.0075842761 0.10205823 4283656818
0.36083511 -0.0082654692 0.10451953 4283724925
0.35801342 -0.0029592826 0.10187919 4282076762
0.36193004 -0.001035042 0.1038543 4280299580
0.35846969 0.003072083 0.10048617 4280760647
0.36360034 0.0023484896 0.10355847 4280958025
0.35917696 0.0074842381 0.10040835 4281287764
0.36386684 0.0074252109 0.10323951 4281222226
0.35920271 0.0103049 0.10035225 4281222486
0.36308789 0.011499666 0.10280935 4281419090
0.36800995 0.014333414 0.10484789 4280695882
0.36412051 0.016168565 0.10293223 4281617756
0.3657839 0.018413836 0.10338127 4281683550
0.36810046 0.020681191 0.10410661 4281946720
0.36303863 0.048597842 0.10182504 4281616467
0.36360845 0.052219521 0.1015453 4280825667
0.36540031 0.052683152 0.10323572 4281089095
0.36371329 0.057998423 0.10151818 4281220679
0.3659167 0.056808073 0.10356768 4281220936
0.36422944 0.062736996 0.10166359 4280628025
0.36644435 0.062164593 0.10387512 4281089864
0.36459696 0.067244641 0.10171334 4280692790
0.36638921 0.067763373 0.10340572 4280956733
0.36642581 0.072605021 0.10282907 4280233266
0.36476526 0.078616194 0.10026767 4280826179
0.36722803 0.077752262 0.10300593 4281155913
0.36479864 0.082279317 0.10019482 4281682516
0.36730951 0.08254458 0.10287774 4281814100
0.36483964 0.087456569 0.10020803 4282274652
0.36790952 0.087387681 0.10316198 4282076760
0.36485142 0.090427861 0.10043932 4282471772
0.36728218 0.092656583 0.10215306 4282472286
0.370646 0.093428813 0.10493586 4282406237
0.36777723 0.097429492 0.10193649 4282340959
0.37067357 0.096449316 0.1048758 4282406750
0.36837044 0.10222938 0.1019705 4282603876
0.37079084 0.10453304 0.10389229 4282735462
0.36925092 0.10750005 0.10190487 4282867049
0.37120947 0.1074899 0.10400108 4282932842
0.36947557 0.11245117 0.10156913 4282932585
0.37183937 0.11213762 0.10416004 4282998634
0.36997679 0.11719874 0.10228298 4282669926
0.37127352 0.11769713 0.10308588 4282669926
0.36829466 0.12293132 0.10088106 4282274653
0.37070867 0.12246455 0.10277081 4282472289
0.3682926 0.12803744 0.10135352 4282011737
0.37051615 0.12715526 0.10306889 4282406238
0.36815274 0.13265 0.10125834 4282801255
0.37004319 0.13231856 0.10333138 4282472548
0.36819756 0.13756342 0.10116065 4282800995
0.37008813 0.13725148 0.10323329 4283196012
0.36889675 0.14264612 0.10133781 4282998117
0.37029672 0.14222683 0.10320434 4282866532
0.36926886 0.14765231 0.10137739 4283720041
0.37115964 0.14737777 0.10345173 4282998376
0.36849555 0.15234827 0.10093621 4284311662
0.37067857 0.15273833 0.10334112 4283063654
0.36837322 0.15751188 0.10088082 4284442478
0.37088275 0.15758446 0.10356107 4282931555
0.36847022 0.16251205 0.10116197 4284837234
0.37098339 0.16233139 0.10390015 4283063913
0.36803693 0.16726337 0.10136218 4284705135
0.37083668 0.16791148 0.10427242 4283392106
0.36778677 0.17263557 0.10202147 4285231479
0.37031254 0.17140418 0.10419648 4283325542
0.36815196 0.17750919 0.10270036 4285296755
0.36749488 0.1826437 0.1023832 4286216828
0.36465603 0.18821374 0.10010691 4289702570
0.36703631 0.18712588 0.10267979 4287531917
0.36463216 0.19293332 0.10127528 4287597705
0.36670539 0.19197619 0.10334747 4286019191
0.36366391 0.19809055 0.10225593 4287467150
0.36626822 0.1960177 0.10394502 4284638055
0.3624306 0.20247011 0.10246874 4289045409
0.35948151 0.20758192 0.1005432 4287465605
0.36143216 0.2072345 0.10303805 4288386194
0.35911345 0.21281053 0.10172637 4288386964
0.36097208 0.2118627 0.1039345 4288518036
0.3582854 0.21763898 0.10227323 4287070845
0.3606441 0.21516821 0.10432794 4288584600
0.35768411 0.22275193 0.10275531 4288123791
0.35492751 0.22746325 0.10068676 4289965996
0.3578817 0.22747768 0.10343513 4288452756
0.3549892 0.23423055 0.10055219 4289045151
0.35708642 0.23241223 0.10254533 4289110940
0.35499647 0.23502672 0.10053637 4289045151
0.35665014 0.23760724 0.10243145 4289374374
0.35619915 0.24251162 0.10223936 4288189840
0.35627568 0.24738231 0.1024906 4290031789
0.35419166 0.25343117 0.10172781 4288057483
0.35578281 0.25188518 0.10318398 4288189582
0.34416983 0.25977975 0.10073397 4285624685
0.3479175 0.25958571 0.10179506 4284701775
0.35270905 0.25745752 0.10237866 4287465343
0.34417692 0.26055804 0.10071851 4287337114
0.34819922 0.2608377 0.10044793 4284243286
0.3501893 0.26042184 0.10062636 4284043081
0.34934655 0.2866942 0.10162994 4286084726
0.35605064 0.29162034 0.10437585 4286150519
0.36466354 0.32407406 0.10174235 4290690748
0.3662239 0.32315511 0.10286665 4288454044
0.36395052 0.32725659 0.10150815 4286939261
0.3658323 0.32752115 0.10383517 4289768615
0.36472192 0.33106908 0.10170448 4285032554
0.36587214 0.33324596 0.1032081 4285228387
0.3648102 0.3381317 0.10111414 4287070588
0.36606178 0.33685437 0.10316201 4285294184
0.36435449 0.34208357 0.10086579 4287796114
0.36639097 0.34231713 0.10341733 4287532168
0.36488008 0.34606019 0.10100149 4289637541
0.36691797 0.34824878 0.10289773 4289242270
0.36412188 0.35221884 0.10078489 4288648847
0.36732939 0.35251346 0.10356488 4289044122
0.35997126 0.35911837 0.10113285 4292266686
0.36281258 0.35747817 0.1021597 4289044377
0.36639792 0.35636458 0.10416444 4288253575
0.35996935 0.36046159 0.10137337 4292068020
0.36255458 0.36098877 0.10306221 4290885548
0.37357676 -0.30078888 0.10933012 4289836208
0.37206161 -0.29753894 0.10725157 4290363061
0.37255946 -0.29222426 0.10721006 4285031258
0.37533411 -0.29039097 0.10924663 4281937458
0.37318245 -0.28742671 0.10653694 4285426289
0.37550384 -0.28712705 0.10923995 4283846742
0.37391874 -0.28318307 0.10652292 4288126891
0.37593272 -0.28211507 0.10865905 4288521904
0.37423313 -0.27753159 0.10678079 4288192682
0.37643468 -0.27715096 0.10939098 4290299344
0.37427881 -0.27252397 0.10668121 4290827226
0.37648055 -0.27212054 0.10929095 4292866032
0.37348652 -0.26730609 0.10628436 4292930799
0.37593767 -0.26718149 0.10894817 4294114555
0.37300962 -0.2623046 0.10650491 4291944419
0.37555999 -0.26318729 0.10912357 4290101186
0.37324095 -0.25739858 0.10770272 4289510340
0.36984402 -0.25252467 0.10522193 4289246400
0.37233379 -0.25252378 0.10784589 4287271578
0.36909252 -0.24715061 0.10604779 4290497494
0.37152475 -0.2471972 0.10833363 4291090146
0.36873421 -0.24252035 0.10609017 4291288812
0.37186581 -0.24249268 0.10909247 4291684595
0.36860797 -0.23736759 0.10680223 4291091173
0.3712461 -0.23830852 0.10927632 4291551210
0.36847904 -0.23261435 0.10755395 4291222248
0.36735797 -0.22764434 0.10718602 4288916919
0.36712307 -0.22249269 0.10714477 4289969861
0.36410031 -0.2186531 0.10537761 4289968830
0.36731932 -0.21706809 0.10831707 4290431697
0.36313772 -0.21205524 0.10564858 4289443003
0.36556295 -0.21172658 0.10803632 4289838016
0.36336166 -0.20724662 0.10687911 4290364617
0.36599016 -0.20720878 0.10925315 4289969345
0.36260137 -0.20239966 0.10644056 4290429636
0.36505601 -0.20226415 0.10873585 4290231743
0.36353227 -0.19748752 0.10671976 4289507506
0.36526334 -0.19742094 0.10870937 4290363328
0.36373946 -0.19266164 0.10669322 4290889930
0.36530817 -0.19250672 0.10861165 4290824652
0.3631084 -0.18712109 0.10666139 4290034364
0.3658047 -0.18777834 0.10940979 4289968572
0.36316878 -0.18247859 0.10686386 4288124312
0.36517772 -0.18225965 0.10948314 4289573811
0.36369067 -0.17726666 0.10747046 4290100414
0.36519364 -0.1776638 0.1098825 4289705400
0.36362678 -0.17244503 0.10698304 4289705144
0.36521977 -0.17479765 0.1098255 4290165950
0.36368129 -0.16744603 0.10690418 4288980392
0.36349192 -0.16294326 0.10643847 4289112233
0.36565721 -0.16128761 0.10877976 4289177509
0.36404788 -0.15764901 0.10620128 4288586148
0.36581406 -0.15750279 0.10851076 4286874755
0.36427513 -0.15339489 0.10571003 4288849319
0.36707404 -0.15243021 0.10830092 4289111199
0.36709335 -0.14749622 0.10746727 4289439649
0.36729902 -0.14240144 0.10734553 4290361008
0.36821151 -0.1375294 0.10733414 4287729809
0.36843619 -0.13244283 0.10645206 4289178788
0.37061033 -0.1324798 0.10903012 4289573802
0.36965185 -0.12818621 0.10617097 4287270017
0.37131071 -0.12729375 0.10841332 4288257176
0.36985159 -0.12026308 0.10630801 4287072388
0.37219718 -0.12301644 0.10729659 4288321685
0.36771747 -0.11679143 0.10616317 4288320648
0.37108657 -0.11791763 0.10855825 4289044115
0.36442965 -0.1122237 0.10590883 4291216310
0.36781755 -0.11227216 0.10811347 4292202947
0.37072212 -0.11301947 0.10988218 4292005055
0.36396134 -0.10751923 0.10601394 4288451465
0.36653772 -0.10751329 0.10827584 4287530875
0.36497107 -0.10416788 0.10636628 4286216305
0.36720535 -0.10190246 0.10766034 4286479733
0.37005395 -0.10046186 0.10550207 4283780163
0.36993092 -0.099586114 0.10795785 4287729287
0.37274927 -0.097562879 0.10745457 4284637017
0.37591362 -0.095122553 0.1091269 4285098593
0.37681016 -0.092593811 0.10771107 4285492585
0.37901849 -0.088719472 0.10820322 4288057217
0.38084233 -0.086792581 0.10872544 4287728512
0.3810266 -0.082040481 0.10912001 4289703852
0.37753871 -0.076804884 0.1095952 4290624700
0.38004342 -0.079174653 0.10921177 4290559419
0.37215009 -0.072173841 0.10693556 4288190875
0.37506443 -0.072372884 0.1097157 4287730586
0.37269381 -0.067404926 0.10710282 4288255892
0.37510285 -0.066950731 0.10981601 4286018162
0.37384719 -0.064332992 0.10691224 4288848542
0.37550154 -0.062179666 0.10799067 4286939519
0.37221712 -0.056991898 0.10720283 4288716441
0.37526819 -0.059695516 0.10779859 4289307550
0.36345646 -0.050764497 0.10527947 4289704103
0.36654851 -0.051292717 0.10790602 4289901231
0.37079403 -0.053827677 0.10808267 4288979870
0.35916066 -0.045594327 0.10681551 4284900964
0.36214489 -0.047954049 0.10801714 4287664011
0.3653411 -0.049360473 0.10772531 4290952633
0.35900468 -0.042928722 0.10762032 4285231217
0.36064461 -0.040827785 0.10856022 4285955196
0.36325145 -0.039246745 0.10735896 4288322455
0.367495 -0.036759969 0.10751892 4287467924
0.37038362 -0.035567183 0.10915808 4283520350
0.36855891 -0.034455065 0.10596328 4287073424
0.37099302 -0.032324348 0.10797756 4288125595
0.37119481 -0.027324708 0.10770294 4288058511
0.36919412 -0.021352068 0.10691199 4288059028
0.37067956 -0.023497473 0.1083173 4288914078
0.36703059 -0.017176522 0.10741896 4283389783
0.36402166 -0.011910791 0.10748949 4282670431
0.36562347 -0.014320073 0.10772823 4281482302
0.3637864 -0.0080124531 0.1072779 4284515215
0.36649144 -0.0064529185 0.10908288 4281815134
0.36322132 -0.0026812297 0.10569511 4281155660
0.36767793 -0.0020871318 0.10861725 4280958537
0.36454105 0.0013317736 0.10533807 4281089353
0.36716607 0.0028943962 0.10643402 4280826952
0.37071931 0.0036477528 0.10879052 4280761416
0.36837101 0.0073773353 0.10642622 4281222483
0.37238458 0.0073370673 0.10942356 4281288531
0.36815822 0.012399062 0.10611816 4281287504
0.37210357 0.012307686 0.10918345 4281616982
0.36911365 0.01723648 0.10651112 4281354583
0.37378058 0.017278431 0.10979102 4281419864
0.36905295 0.021319769 0.10512795 4281881186
0.3733511 0.022405466 0.10733567 4282604649
0.37586528 0.023928914 0.10925768 4282342249
0.37404943 0.025090078 0.10590398 4282668637
0.37798259 0.027110219 0.10893293 4283655791
0.36834264 0.04908761 0.10656004 4280891714
0.37100697 0.047744978 0.10849679 4280693821
0.36855453 0.05256255 0.10668868 4282011483
0.37010053 0.052718889 0.10903648 4282407526
0.36870834 0.057498403 0.10663745 4281419601
0.3704721 0.057689935 0.10907999 4281551187
0.3691735 0.062215507 0.10655769 4281484880
0.37097085 0.063083515 0.1088883 4281484367
0.36871099 0.06733232 0.10598388 4281615950
0.37123716 0.067641512 0.10875545 4281945174
0.3690826 0.07229846 0.10602614 4281221191
0.37144566 0.072613396 0.10872763 4281549644
0.36944303 0.076034628 0.10609286 4281419345
0.37143418 0.077785343 0.10784094 4281287244
0.37192801 0.082540706 0.10743478 4281813330
0.37273118 0.087353878 0.10749848 4282208088
0.37536794 0.088842608 0.10962272 4282273368
0.37302065 0.092598729 0.10724411 4282537053
0.37605178 0.09227138 0.1098382 4282668126
0.37226313 0.097562544 0.10654631 4282537823
0.37642416 0.097321488 0.10987961 4282799968
0.37289137 0.10227151 0.10643058 4282866275
0.37615374 0.10184234 0.10937092 4283128419
0.37352705 0.10754275 0.1062606 4282998376
0.37623242 0.10724813 0.10870842 4283194983
0.37438977 0.1126723 0.1065098 4283129963
0.37660488 0.11230799 0.10874909 4283392107
0.37443516 0.11764854 0.10641084 4282866791
0.37665048 0.11730913 0.10864966 4283194986
0.37339881 0.12263777 0.10602778 4282735204
0.37667778 0.12245676 0.10891782 4283063399
0.37332517 0.12732854 0.10622593 4282866533
0.37669775 0.12732838 0.10928294 4283391848
0.37312594 0.13279933 0.10664997 4282998378
0.37623087 0.13222273 0.10938832 4283917679
0.37324533 0.13754445 0.10669425 4283261551
0.37576398 0.13710974 0.10949385 4283588974
0.37329057 0.14250983 0.10659552 4282931812
0.37597302 0.14214309 0.10946495 4283259751
0.37333584 0.14747521 0.10649678 4282998120
0.37683618 0.14734994 0.10971735 4283391079
0.37363088 0.15215798 0.10668179 4283195241
0.37604448 0.15253747 0.1092481 4283522921
0.37364581 0.15777433 0.10703198 4282997861
0.37594223 0.15665938 0.10910512 4283523433
0.37327161 0.16265868 0.10662655 4282998377
0.37529263 0.16346946 0.10890204 4283194987
0.3723855 0.16750965 0.10633127 4283655535
0.37568441 0.16738686 0.10930339 4283852401
0.3731479 0.17249498 0.10755125 4283786093
0.37503612 0.17426801 0.10998645 4284376945
0.37206492 0.17752737 0.10687228 4283193955
0.3750664 0.1775891 0.1099204 4283785318
0.37207484 0.18267085 0.10716543 4283194469
0.37509668 0.1809102 0.10985436 4283588710
0.3693617 0.18878707 0.1058864 4283651679
0.37157717 0.18711922 0.10752755 4283259236
0.36855248 0.19226424 0.1059382 4283456098
0.37167141 0.19270651 0.10896223 4282864991
0.36768165 0.19793022 0.10685657 4282996321
0.37026763 0.19689468 0.10892449 4282865506
0.36432695 0.20314007 0.10589176 4288059547
0.36642072 0.20230204 0.10779909 4284245359
0.36341915 0.20787546 0.1062851 4288847516
0.36577964 0.20732702 0.10881387 4286480261
0.36291549 0.21278451 0.10721391 4289110687
0.36534607 0.21317899 0.10978758 4289111462
0.35961381 0.21881938 0.10542838 4287926155
0.36179015 0.2173086 0.10759454 4288254862
0.35963583 0.22123222 0.10538041 4287530369
0.36149719 0.22250859 0.10824634 4285686620
0.35964912 0.22736108 0.10606183 4287202947
0.36152482 0.22738168 0.10846677 4286543477
0.35955575 0.23244505 0.1058981 4288057995
0.3609798 0.23222657 0.10815021 4287268478
0.3593379 0.23783441 0.10644224 4288978589
0.36105308 0.23677984 0.10849021 4289242532
0.35922965 0.24248387 0.10633331 4289637031
0.36063531 0.24226429 0.1086187 4289834151
0.35856277 0.24742094 0.10635667 4290623154
0.36068305 0.24750265 0.10851454 4290623154
0.35748041 0.25208256 0.10633912 4288386191
0.35465664 0.25691032 0.10555672 4285094758
0.35586655 0.25553313 0.10613827 4284436828
0.35620114 0.29223099 0.10540856 4286084733
0.3631365 0.29737622 0.10760131 4287861392
0.36897606 0.32413241 0.10541313 4287664266
0.36797684 0.32801247 0.10645995 4288189586
0.37152225 0.32720947 0.10862221 4287400325
0.36827487 0.33242819 0.10765943 4287004537
0.36807063 0.33733898 0.10750203 4282727740
0.36886954 0.34240451 0.10705475 4285097316
0.37042952 0.34400004 0.10935634 4284768610
0.36891907 0.34728909 0.10637791 4286874238
0.37110066 0.34758052 0.10904778 4286282362
0.36920941 0.35218975 0.10613824 4288715415
0.37160394 0.3526859 0.10886877 4288847771
0.36884409 0.35805351 0.10695232 4287003515
0.37137777 0.35741064 0.10896546 4288384392
0.36692026 0.36232787 0.10688357 4289833376
0.37055749 0.36041892 0.10943963 4288584861
0.36767167 0.36570963 0.10800933 4289897369
0.37734011 -0.30172259 0.1128633 4290231227
0.37669131 -0.29744112 0.11214171 4290098605
0.37705731 -0.2924625 0.11211067 4286018403
0.37775037 -0.28761762 0.11217756 4282201398
0.38008973 -0.28653106 0.11458346 4282135352
0.37836257 -0.28280133 0.1120462 4287468441
0.38026741 -0.28238758 0.11456023 4285427831
0.37813753 -0.27773249 0.11162931 4290168017
0.380844 -0.27705416 0.11438981 4290495696
0.37859806 -0.27249971 0.11179303 4293259507
0.38096839 -0.27195239 0.11439319 4292798443
0.37840965 -0.26765239 0.11136234 4291877595
0.38058349 -0.26726684 0.11359541 4291022545
0.37859985 -0.26192778 0.11242495 4288786356
0.38097453 -0.26436958 0.11385629 4289511364
0.37772498 -0.25777063 0.11228944 4289444031
0.38030705 -0.25778729 0.11485577 4288456624
0.37456343 -0.2504859 0.11096501 4290628565
0.3763957 -0.25300449 0.11222694 4290497235
0.37380639 -0.2475713 0.11057641 4291024352
0.376957 -0.24729769 0.11352824 4291024871
0.37348294 -0.24309741 0.11088128 4291355119
0.37648073 -0.24242139 0.11380877 4291090920
0.37371647 -0.23739058 0.11214236 4289970636
0.37551019 -0.23806055 0.11388924 4290036428
0.37253892 -0.23266453 0.1118621 4290035910
0.37551144 -0.23209901 0.11477361 4289574843
0.37235731 -0.22731762 0.11165766 4290035907
0.3755534 -0.22749677 0.1146821 4289574329
0.37305754 -0.22258182 0.11258287 4290100674
0.37557629 -0.22498643 0.11463218 4288256159
0.36982697 -0.21600097 0.11110388 4291681504
0.37206098 -0.21783355 0.11276364 4291088854
0.3687312 -0.21176276 0.11116717 4289377206
0.37159371 -0.21343596 0.11325258 4290035134
0.36886188 -0.20726736 0.11174784 4288784812
0.37140414 -0.2075818 0.11412095 4289574585
0.36812311 -0.20238498 0.11131363 4289902521
0.37079951 -0.20231783 0.11373372 4289639349
0.36844447 -0.19755802 0.11165383 4290626760
0.37146959 -0.19719617 0.11446729 4290429381
0.36808419 -0.19231696 0.11169033 4290232003
0.37108269 -0.19328865 0.11448818 4289639349
0.36810568 -0.18745206 0.11271315 4289902522
0.36739233 -0.18254538 0.1124081 4290758603
0.36793995 -0.17750232 0.11320294 4290231743
0.36746266 -0.17264768 0.11216605 4289770677
0.36742294 -0.16760059 0.11186656 4289375919
0.36793762 -0.16273436 0.11213793 4288059288
0.37006301 -0.16131638 0.11497265 4288520354
0.36840838 -0.15758941 0.11180188 4288322460
0.37029967 -0.1572511 0.11427465 4288125341
0.36910945 -0.15336595 0.11149843 4292006090
0.37145364 -0.1521505 0.11346957 4291149500
0.36942545 -0.14784689 0.11015409 4294704368
0.3724367 -0.14731896 0.11308815 4291413438
0.36945555 -0.14454529 0.11008844 4294966510
0.37243015 -0.14225842 0.11264186 4291742404
0.37263653 -0.13744219 0.11256072 4289046182
0.37316757 -0.13266662 0.11250973 4288717727
0.37532201 -0.13093211 0.11484376 4290558897
0.3738448 -0.12763187 0.11204012 4287926152
0.37543756 -0.12552911 0.11348513 4291873468
0.37425825 -0.12298218 0.11092925 4286804839
0.37617612 -0.12226335 0.11354363 4294045668
0.37329397 -0.11812951 0.11096717 4292597451
0.37551367 -0.11717761 0.11331906 4292663509
0.37279466 -0.11256177 0.11207353 4292137412
0.37646243 -0.11322599 0.11491717 4291019704
0.36899349 -0.10689502 0.11103915 4288123779
0.3718752 -0.10739528 0.11354755 4286478956
0.36866289 -0.10212699 0.11170389 4285952871
0.37057322 -0.10175793 0.11440787 4285821032
0.36975688 -0.099518977 0.11125411 4281149989
0.37306556 -0.098076582 0.11230362 4281545004
0.37629256 -0.096012615 0.11286688 4283978573
0.37854871 -0.092393838 0.11237819 4285820782
0.38069913 -0.090233877 0.11405622 4288125084
0.37984422 -0.088810824 0.11150496 4290164142
0.38087261 -0.086804099 0.11275707 4289177512
0.37996152 -0.08083228 0.11050568 4289242277
0.38169882 -0.082781211 0.11252243 4287794574
0.37898764 -0.077320948 0.11178168 4289111721
0.38080812 -0.078767061 0.113744 4286018168
0.37704957 -0.072278351 0.11264319 4285822844
0.37405849 -0.069269165 0.11027402 4282465863
0.37694204 -0.067226231 0.11286471 4285163884
0.37726876 -0.062349968 0.1123172 4286414978
0.35809717 -0.05635573 0.11422667 4281744709
0.36592126 -0.055088151 0.11480633 4286019190
0.37395823 -0.056032613 0.11260586 4288453531
0.37588492 -0.058100026 0.11278358 4288190613
0.35842302 -0.052425247 0.11424851 4282864215
0.36248901 -0.051671144 0.11395248 4284177754
0.36667478 -0.051761933 0.11264059 4286874244
0.37269086 -0.053924631 0.11277128 4289309355
0.35931858 -0.048310313 0.11444948 4288520336
0.3609663 -0.047403354 0.1122897 4284968038
0.35922402 -0.043225192 0.11070608 4285429373
0.36039093 -0.04240853 0.11279778 4282731343
0.36323795 -0.038103834 0.11304986 4283390041
0.36613303 -0.036582869 0.1117355 4285494648
0.36309734 -0.033471305 0.11469208 4282074435
0.36704811 -0.032934822 0.11325639 4283192666
0.37128067 -0.031762041 0.11170709 4286282878
0.36913237 -0.029574975 0.11478673 4280494638
0.37174183 -0.027458373 0.11263695 4283585621
0.36932787 -0.020556988 0.1124682 4281414964
0.37099618 -0.022979559 0.11259787 4284110932
0.3637709 -0.015601801 0.11414947 4293916655
0.36752751 -0.017413888 0.11256034 4283783254
0.3544074 -0.011777991 0.11189692 4283649874
0.35739967 -0.012369825 0.1120337 4284701019
0.36272776 -0.012712158 0.11222526 4289639603
0.36583367 -0.012163626 0.11117797 4287472803
0.35444382 -0.0077809705 0.11181743 4281221452
0.35842869 -0.0067844186 0.11236351 4281089348
0.36187947 -0.0061382507 0.11348603 4280957250
0.36714455 -0.0076172948 0.1126885 4281485398
0.37112781 -0.0063011362 0.11374326 4281288535
0.36156592 -0.004568655 0.11397275 4280824377
0.36957175 -0.0033735677 0.11048096 4281353810
0.3730289 -0.0026349281 0.11284668 4281090381
0.37636635 -0.0018505296 0.11477948 4280893257
0.37292621 0.0023786712 0.11104701 4281024843
0.37644848 0.0023106758 0.1138626 4281288272
0.37642944 0.0073045427 0.11288287 4281354323
0.37712756 0.012310198 0.1130678 4282078048
0.37749949 0.017328177 0.11311039 4281683293
0.37478611 0.020193934 0.11015687 4281289049
0.37826994 0.022441342 0.11295306 4281749856
0.37924913 0.027095519 0.11240587 4281946978
0.38066578 0.028976744 0.11392637 4281683550
0.37981567 0.030787302 0.11134634 4282800742
0.38120669 0.03290512 0.11326841 4283786608
0.38142678 0.037505299 0.11385676 4282998636
0.37791952 0.042616658 0.11293355 4282341735
0.37375966 0.047406975 0.11178663 4281946718
0.37596139 0.046409424 0.11401651 4282144100
0.37243989 0.052529093 0.11210865 4282473062
0.37577507 0.050312065 0.11497694 4282670186
0.3721782 0.057600841 0.11151816 4281550159
0.37583968 0.057397027 0.11483604 4282075987
0.3732318 0.062245965 0.11187063 4281418318
0.37594822 0.064465038 0.113863 4281616469
0.37333158 0.067297019 0.11133718 4282142812
0.37646458 0.067434348 0.11401994 4282472034
0.37236014 0.072751373 0.1103898 4281944403
0.37645051 0.072421759 0.11346933 4282339418
0.37379384 0.077823572 0.11065425 4281154629
0.37716696 0.077173628 0.11358563 4282010449
0.37658048 0.082404174 0.11200944 4281943375
0.37754214 0.087370597 0.11198245 4282601303
0.38012081 0.087931909 0.11428522 4283587424
0.37827292 0.0926461 0.11207718 4283193440
0.38048577 0.092182636 0.11434413 4284113512
0.3789722 0.097774439 0.11226045 4283653990
0.38167515 0.09741091 0.11474223 4285627259
0.37757686 0.10253415 0.11096826 4283850855
0.38149473 0.10262503 0.11421635 4286546819
0.37829092 0.10766179 0.11087177 4283917162
0.38083139 0.1073255 0.11327493 4286678919
0.37882701 0.11277526 0.11098323 4283851627
0.38136756 0.11246308 0.11338714 4286152575
0.37854591 0.11773232 0.11074258 4283719785
0.38149697 0.11787714 0.11365974 4286152317
0.37838554 0.12253418 0.11106374 4283851372
0.38186207 0.12224606 0.11394482 4285823866
0.37791055 0.12741388 0.11112266 4284705647
0.38164279 0.12801611 0.11434082 4287467661
0.37797403 0.13224526 0.11114432 4285297529
0.38115832 0.13261174 0.1141037 4288454557
0.37799799 0.13810425 0.11158337 4284376943
0.38054302 0.13716759 0.1138096 4287533713
0.3777056 0.14262189 0.11148965 4284179563
0.38057435 0.14255057 0.11403816 4286809735
0.37856886 0.147848 0.11174368 4283982183
0.38062033 0.14759071 0.11393794 4285889148
0.37892029 0.15292332 0.11194152 4284376682
0.3806586 0.15179083 0.11385442 4284835944
0.37838486 0.15740438 0.11186277 4284902511
0.38100639 0.15904018 0.11469381 4288190869
0.37809137 0.1625724 0.11233468 4286151290
0.38069856 0.16104817 0.11450936 4287926155
0.37780118 0.16727866 0.11265207 4286218370
0.37767053 0.17212872 0.11253375 4286217858
0.37775648 0.17727195 0.11281855 4286481027
0.37701672 0.18251871 0.112521 4285955198
0.37412512 0.18889789 0.11050665 4283587427
0.37690181 0.18718076 0.11282389 4284770927
0.37364036 0.19059394 0.11046305 4283127648
0.37650684 0.19270022 0.11338523 4283783775
0.37312469 0.19781099 0.11184406 4283193442
0.37591746 0.19705191 0.11400265 4283915618
0.36852655 0.20323841 0.11061909 4283720045
0.37204522 0.20234573 0.1130624 4284114800
0.36839044 0.20833737 0.1117311 4283719019
0.37031102 0.2070324 0.1134304 4283390053
0.36433628 0.21442536 0.11013413 4289045927
0.36707634 0.21233326 0.11165415 4286085510
0.36359054 0.21779288 0.1105461 4289637545
0.36528623 0.21606117 0.11135635 4289111724
0.37101713 0.30355173 0.1110121 4287728518
0.3769317 0.30863419 0.11356122 4286675063
0.37860623 0.31229809 0.11401585 4286874754
0.37996081 0.31661937 0.11430965 4287466369
0.38022161 0.31939945 0.1135902 4288716181
0.37914151 0.32435188 0.11204673 4291217095
0.38127333 0.32405066 0.1142939 4286940035
0.37298948 0.32825282 0.11098507 4286807938
0.3772932 0.32686484 0.11253755 4288057232
0.38004851 0.32624233 0.11411831 4288715934
0.37177882 0.33227599 0.11150837 4285952890
0.36933222 0.33805126 0.11026061 4283779647
0.37028986 0.33581978 0.1107483 4288055668
0.37059566 0.34254652 0.11072536 4284570718
0.37161022 0.34741816 0.11069455 4285361522
0.37290999 0.35265264 0.11111051 4288519068
0.37304538 0.35725728 0.11114554 4289108115
0.37194708 0.36265242 0.1108551 4289044123
0.37057409 0.3669998 0.11012829 4289832347
0.37905458 -0.30197427 0.11602022 4287598740
0.3816312 -0.30189359 0.11906358 4287466640
0.37953073 -0.29800996 0.11582669 4290428598
0.38206592 -0.29754567 0.11813631 4289375140
0.37901333 -0.29225796 0.1151255 4286872675
0.38206235 -0.29239556 0.1180416 4287203186
0.37904796 -0.28846323 0.11505004 4281807148
0.38191772 -0.28752324 0.11773261 4282135084
0.38170129 -0.28253523 0.11728436 4284242526
0.38263309 -0.277475 0.11766159 4287072399
0.38359296 -0.27249122 0.11788835 4289311160
0.38597897 -0.27030477 0.1193063 4290101703
0.38269854 -0.26794785 0.1160554 4290233802
0.38587406 -0.2671783 0.11906258 4289445057
0.38269022 -0.26248756 0.1164135 4288852666
0.38587299 -0.2623772 0.11936311 4287799722
0.3825292 -0.25741392 0.11752521 4289180606
0.37931573 -0.25175512 0.11558349 4290695389
0.3820869 -0.25287211 0.11823864 4291024869
0.37863302 -0.24746995 0.11562014 4291551475
0.38168415 -0.24785198 0.11872838 4290498014
0.37856761 -0.24239118 0.11642785 4291157228
0.38048503 -0.24304901 0.11846592 4291090151
0.3782807 -0.23763517 0.11701681 4290564316
0.381203 -0.2374694 0.1199405 4290037713
0.37740219 -0.23219417 0.11687521 4289574589
0.38026705 -0.23275971 0.11942136 4289969604
0.37807834 -0.22717704 0.11747861 4289311412
0.37771049 -0.22278035 0.11721472 4291416788
0.37458941 -0.21613438 0.11570384 4291285456
0.37707075 -0.21787436 0.11752831 4292403168
0.37417194 -0.2117532 0.11615004 4290693579
0.3767733 -0.21285388 0.11845797 4290362556
0.37362462 -0.20732343 0.11635357 4289508534
0.37551591 -0.20732911 0.11845988 4289113262
0.37283847 -0.20215259 0.11598628 4289901751
0.37555405 -0.20314524 0.11837669 4289112232
0.37323061 -0.19782302 0.11651274 4290561221
0.37597182 -0.19708492 0.11951517 4288915108
0.37269485 -0.19241855 0.11727035 4288519837
0.37556419 -0.19475196 0.11946344 4289638826
0.36984059 -0.18571363 0.11545778 4290626762
0.37227374 -0.18758625 0.11768445 4286675583
0.369867 -0.18281905 0.11540022 4290692809
0.37238991 -0.18271405 0.11820315 4288585378
0.37156856 -0.17739105 0.11771325 4290033595
0.36995244 -0.17164791 0.11548785 4290297537
0.37167746 -0.17259304 0.11788899 4289638839
0.36997005 -0.16778167 0.11574367 4289837241
0.37200251 -0.16714095 0.11798453 4289837498
0.36999303 -0.16419417 0.11585588 4289245359
0.37182832 -0.16242321 0.11777693 4289046696
0.37246916 -0.1573929 0.11771593 4288322975
0.37386149 -0.15323749 0.11696462 4289111720
0.37568724 -0.15175912 0.11852946 4288914597
0.374127 -0.14980172 0.11562604 4292729557
0.37662312 -0.14756127 0.11799883 4287334794
0.37669683 -0.1424527 0.11785806 4287401102
0.37645802 -0.13733838 0.11763131 4289112235
0.37695941 -0.13233918 0.11774839 4290690748
0.37761411 -0.12746873 0.11747436 4290361012
0.37799537 -0.12254489 0.11707659 4289045156
0.37841821 -0.11762762 0.11693608 4289177254
0.38045651 -0.11676568 0.11932377 4290033849
0.37762979 -0.11208574 0.11699838 4290822328
0.38055506 -0.11326677 0.1195708 4290625468
0.37441233 -0.10641607 0.11684462 4293190358
0.37721702 -0.10810292 0.11846499 4288716442
0.37304944 -0.10224961 0.11673978 4287136634
0.3740235 -0.09902329 0.11585766 4281347880
0.37702271 -0.097450301 0.1174262 4281018664
0.38038242 -0.09561228 0.1192167 4280688932
0.3785556 -0.094474927 0.11606647 4286742135
0.38129091 -0.092160217 0.11755756 4284899941
0.38227382 -0.087698929 0.11743413 4286085242
0.38355494 -0.082735702 0.11727424 4286677378
0.38547269 -0.081381693 0.11981393 4282400840
0.38308707 -0.077551492 0.11738061 4284112484
0.37974066 -0.072089866 0.11600608 4285822328
0.38221735 -0.072461426 0.1183485 4286545279
0.37914675 -0.066712052 0.11669368 4288388768
0.38083175 -0.067978084 0.118485 4288915114
0.36826 -0.061321698 0.11886088 4282930020
0.37392595 -0.061753556 0.11864677 4287862939
0.37842789 -0.062695511 0.11740585 4289046697
0.35985163 -0.058230039 0.1154805 4282140246
0.36350811 -0.057575028 0.11587235 4282862935
0.36784193 -0.057444859 0.11599895 4287072651
0.37320623 -0.057591628 0.11611032 4289441197
0.37658164 -0.058748629 0.1162328 4289506988
0.35991064 -0.051756825 0.11535179 4283322976
0.36424801 -0.053471114 0.11513234 4283322704
0.36739442 -0.054476369 0.11544698 4284308573
0.37090486 -0.054579627 0.11532832 4286808965
0.35995492 -0.046901897 0.11525526 4287140216
0.36094648 -0.045405265 0.11566881 4286678632
0.36171943 -0.042252451 0.11573576 4283258448
0.3620151 -0.037817366 0.11555555 4283061331
0.36280558 -0.032456867 0.11562809 4282929227
0.36559182 -0.030450685 0.11532326 4280693044
0.36405098 -0.0290577 0.11626639 4281089093
0.36714932 -0.027367588 0.11614904 4281417023
0.37013152 -0.026496673 0.11529812 4280824111
0.36807266 -0.022473155 0.11696788 4285295715
0.37014154 -0.023003254 0.11564085 4282861370
0.36319625 -0.015537872 0.11555506 4287927439
0.36722979 -0.018360766 0.11670074 4286087545
0.36320367 -0.014723846 0.11553886 4285884774
0.37179908 -0.0053751227 0.11539111 4281616983
0.36327869 -0.0041332142 0.11573479 4280888883
0.36900726 -0.0025554136 0.11721142 4280628031
0.37310952 -0.0026335439 0.11732686 4281089866
0.37675029 -0.0021673637 0.11693662 4281024589
0.37894639 0.001863056 0.11705164 4281287503
0.38068166 0.0031058036 0.11914176 4281286473
0.37936351 0.0072981236 0.11630807 4281814360
0.38082376 0.0073081995 0.11867402 4282735205
0.37940943 0.01233827 0.11620787 4282538598
0.38176677 0.012358236 0.11897186 4283064685
0.37944385 0.016118379 0.11613271 4282078048
0.38141143 0.017830588 0.11810946 4281617242
0.38157725 0.022466084 0.1177849 4281682779
0.38209021 0.027673451 0.11764742 4281420377
0.38263795 0.032611653 0.11757933 4281420118
0.38217127 0.037619408 0.11746133 4281881184
0.37908432 0.04314664 0.11640042 4282341220
0.38152531 0.041537248 0.1185186 4282143841
0.37748596 0.047401983 0.11671085 4282142557
0.38051432 0.048179619 0.11970915 4282339160
0.37477487 0.052756447 0.11532564 4282274653
0.37855196 0.05273737 0.11837894 4282338902
0.37752241 0.057160035 0.11729999 4282339158
