# .PCD v0.7 - Point Cloud Data file format
VERSION 0.7
FIELDS x y z rgb
SIZE 4 4 4 4
TYPE F F F U
COUNT 1 1 1 1
WIDTH 1054
HEIGHT 1
VIEWPOINT 0 0 0 1 0 0 0
POINTS 1054
DATA ascii
-0.8905735 -0.61533606 -1.1501572 4293839833
-0.88751405 -0.61583996 -1.1516331 4290746271
-0.91124779 -0.61119485 -1.1520306 4285555065
-0.90891933 -0.61357552 -1.1522857 4287790994
-0.90054697 -0.61022371 -1.1503648 4293642719
-0.89714307 -0.61099589 -1.1523077 4294298591
-0.89265382 -0.61278689 -1.1527091 4293510872
-0.8888799 -0.61398995 -1.1537113 4291208886
-0.92684054 -0.60796511 -1.1521162 4289305523
-0.92259616 -0.60674721 -1.1525676 4288515238
-0.91737938 -0.60659188 -1.1525751 4287068046
-0.91331363 -0.60844123 -1.1528393 4285555064
-0.90758407 -0.60721922 -1.1524824 4289763753
-0.90255719 -0.60832131 -1.1524922 4293379802
-0.89892602 -0.6092748 -1.1537158 4294035675
-0.9314425 -0.59598166 -1.1538332 4290227642
-0.92751008 -0.59683603 -1.1529026 4289372080
-0.92262363 -0.59679782 -1.1527467 4287795087
-0.91785169 -0.59634334 -1.1531951 4286876020
-0.91402107 -0.59635383 -1.1507738 4287141479
-0.91577423 -0.59337008 -1.1541599 4286348909
-0.91217357 -0.59269977 -1.1531777 4286877288
-0.9099192 -0.59240651 -1.1526407 4287140709
-0.90937752 -0.58943206 -1.1548997 4287536237
-0.93042135 -0.50070626 -1.1519325 4290168759
-0.92710584 -0.50199533 -1.1511625 4288981890
-0.92411518 -0.50028378 -1.1507396 4287074914
-0.93597484 -0.49768668 -1.1548283 4288190875
-0.93239093 -0.4971503 -1.1518748 4291023306
-0.92820346 -0.49690396 -1.1536155 4287730795
-0.92230862 -0.49732554 -1.1533967 4286941528
-0.91756326 -0.49698982 -1.1527387 4288975254
-0.91417587 -0.49555823 -1.1506754 4285160807
-1.1970154 -0.49226117 -1.1521887 4280363832
-1.1926758 -0.492174 -1.1524035 4280561210
-1.18943 -0.490922 -1.1512642 4280823612
-0.93613696 -0.49216491 -1.153048 4286411903
-0.93265682 -0.49355274 -1.1515601 4288257408
-0.92656004 -0.49372941 -1.1518483 4286679900
-0.92308891 -0.49238417 -1.1529231 4286484817
-0.919029 -0.49324542 -1.1518559 4287922570
-1.2770145 -0.48544988 -1.154068 4283650890
-1.2733392 -0.48662239 -1.1533751 4287206019
-1.2002041 -0.48812875 -1.1509228 4280429106
-1.1976392 -0.48789558 -1.1527922 4280625715
-1.1923048 -0.48892102 -1.1545488 4280758329
-1.1873243 -0.48821232 -1.1529664 4280889658
-1.1832969 -0.48621449 -1.1521589 4281152059
-1.1798785 -0.48501873 -1.1500815 4281021756
-1.1705005 -0.48556089 -1.1536777 4281152832
-1.1676863 -0.48701522 -1.15251 4281219136
-1.1624771 -0.48800677 -1.1523774 4281349696
-1.1573677 -0.48648897 -1.1524034 4281349442
-1.1530461 -0.48550597 -1.1515441 4281218369
-0.93684989 -0.48686671 -1.1514121 4288647328
-0.93138796 -0.48702309 -1.1504037 4286609769
-0.92653865 -0.48823678 -1.1507801 4287928953
-0.92116332 -0.4889999 -1.1525626 4286878043
-0.91803658 -0.4876509 -1.15249 4286411633
-1.2863408 -0.48204446 -1.1538931 4285099868
-1.2823637 -0.48244891 -1.1530161 4284309835
-1.2775981 -0.48302928 -1.1516199 4283848264
-1.2737665 -0.48402756 -1.15114 4286283373
-1.2005308 -0.48338991 -1.1508019 4280166446
-1.1976979 -0.48275492 -1.152452 4280560177
-1.193424 -0.48350611 -1.1543934 4281020470
-1.181301 -0.48389381 -1.1535929 4281349181
-1.1772083 -0.48276681 -1.1523519 4281218367
-1.1727355 -0.48293778 -1.1524215 4281349440
-1.1699028 -0.48413551 -1.1503909 4281349699
-1.151637 -0.48410103 -1.1534386 4281284160
-1.1477439 -0.48345643 -1.1524892 4281218109
-1.1428492 -0.48230943 -1.1512289 4281086780
-1.0306572 -0.48174089 -1.1539409 4281676602
-1.0276519 -0.48230818 -1.1535407 4281676859
-1.0226629 -0.48189181 -1.1527431 4281414201
-1.0188758 -0.48161936 -1.1532959 4281479481
-1.0072012 -0.48101676 -1.1529163 4281218363
-1.0024272 -0.48088524 -1.1524879 4280955447
-0.99736679 -0.48012492 -1.1525099 4281020726
-0.9938581 -0.48018 -1.1540478 4281020725
-0.9854244 -0.48027769 -1.1541921 4281217848
-0.98237211 -0.48029533 -1.1524192 4280955189
-0.97728366 -0.48034602 -1.152355 4281808443
-0.97109759 -0.48025432 -1.1524333 4283387723
-0.96725327 -0.48070556 -1.1528661 4284175949
-0.96333736 -0.48061064 -1.1523769 4284568652
-0.9393611 -0.48161852 -1.1525182 4285750378
-0.93119925 -0.48299655 -1.1508741 4293584623
-0.92952007 -0.48340052 -1.1503098 4292861666
-0.92221218 -0.48320293 -1.1512595 4291147958
-0.91707879 -0.48324603 -1.151513 4286873704
-0.91404039 -0.4820942 -1.1522292 4284042053
-1.297074 -0.47570086 -1.1529156 4284180832
-1.292537 -0.47694573 -1.1525381 4284179798
-1.2879184 -0.47892648 -1.1520282 4284179282
-1.2826979 -0.47988147 -1.1503894 4285428319
-1.2014496 -0.47834975 -1.1507446 4279837993
-1.1973485 -0.47809073 -1.1523433 4281152825
-1.1928097 -0.47846302 -1.1538725 4282007359
-1.0356846 -0.47689921 -1.1521581 4281676856
-1.0327377 -0.47809577 -1.1521367 4281742137
-1.0276971 -0.47946638 -1.1505395 4281611066
-1.0214926 -0.47848651 -1.1509882 4281348921
-1.0173923 -0.47821066 -1.1524504 4281414457
-1.0125859 -0.47939733 -1.1525953 4281348665
-1.0084515 -0.47936985 -1.1513638 4281414972
-1.0045577 -0.47504306 -1.1536031 4281611068
-0.99218053 -0.47917852 -1.1519476 4281020469
-0.98785871 -0.47923297 -1.1524689 4281086262
-0.9820559 -0.47749293 -1.1508262 4281481279
-0.97694796 -0.47786018 -1.150905 4282139464
-0.97260863 -0.47907099 -1.1519028 4282928459
-0.9672671 -0.477433 -1.1525273 4282926401
-0.96123463 -0.47815394 -1.1524342 4286476908
-0.95903385 -0.47645107 -1.1515558 4286281070
-0.94034964 -0.47760719 -1.1526331 4285750111
-0.93962908 -0.47759295 -1.150492 4286144620
-0.91142911 -0.47909561 -1.150563 4283844672
-1.306599 -0.47165886 -1.1526973 4284706656
-1.3022768 -0.47352809 -1.1525112 4284311646
-1.2986065 -0.47466192 -1.1518301 4284312418
-1.2006938 -0.47378415 -1.1505146 4279903786
-1.1973555 -0.47254273 -1.1511554 4280823603
-1.1920764 -0.47290793 -1.1531243 4282798157
-1.1894722 -0.47194636 -1.1540313 4282798151
-1.0162262 -0.47146335 -1.1512153 4281546043
-1.0123826 -0.47238019 -1.1521209 4281677885
-1.0078042 -0.47241631 -1.1521056 4281546811
-1.0035117 -0.47130343 -1.151162 4281611834
-0.99748886 -0.47076952 -1.1522729 4281807418
-0.98632389 -0.47090861 -1.1511818 4281545273
-0.98379588 -0.47261071 -1.1529481 4281807675
-0.96797556 -0.47087216 -1.1502769 4281545783
-0.96102589 -0.47222063 -1.1540632 4285094471
-0.95738494 -0.47272509 -1.1511161 4286217074
-0.95405394 -0.47209769 -1.1506994 4287463800
-0.94116068 -0.47225448 -1.151811 4285880929
-1.3091066 -0.46903953 -1.154369 4284903265
-1.1966424 -0.46883187 -1.1507168 4281547325
-1.1924987 -0.46768776 -1.1516144 4282534988
-1.1866119 -0.46742454 -1.1517637 4281350722
-1.1827387 -0.46757951 -1.152553 4281482052
-1.1790113 -0.46669513 -1.1522024 4281481795
-1.0377576 -0.46564949 -1.1509954 4281022010
-1.0313586 -0.46632332 -1.1502857 4281219131
-1.0288521 -0.46534705 -1.1505117 4281284154
-1.016621 -0.46645084 -1.1502786 4281480507
-1.0128535 -0.46688512 -1.1531286 4281611834
-1.0073034 -0.46748111 -1.1538023 4281414967
-1.0024631 -0.46707565 -1.1526597 4281349688
-0.99722946 -0.46671867 -1.152174 4281348920
-0.99261826 -0.46694002 -1.1525147 4281283386
-0.98767906 -0.46704018 -1.1523428 4281020727
-0.98230779 -0.46676701 -1.1523449 4280823861
-0.9774285 -0.46726838 -1.1524115 4280758322
-0.97258437 -0.46857485 -1.15228 4281283383
-0.96756297 -0.46902087 -1.152451 4281546551
-0.96162081 -0.46687865 -1.1535401 4283912003
-0.95813757 -0.46724027 -1.1521893 4285098331
-0.95204324 -0.46849117 -1.1518527 4288184187
-0.94908607 -0.46565345 -1.1509898 4285754986
-0.94271266 -0.46618462 -1.1533461 4288511103
-1.2205102 -0.46016997 -1.150436 4284904309
-1.1906583 -0.46205133 -1.1507195 4282798674
-1.1874001 -0.46257058 -1.1523095 4282074955
-1.1842413 -0.46276617 -1.1542273 4282008903
-1.1760701 -0.46471095 -1.1503685 4281678405
-1.0320584 -0.46182972 -1.151654 4281153082
-1.0286195 -0.46178135 -1.1509447 4281218361
-1.0247824 -0.46038043 -1.1503568 4281218363
-1.0151119 -0.46246451 -1.1503776 4281546043
-1.0122619 -0.46184888 -1.1532108 4281546041
-1.0078372 -0.46326646 -1.1545417 4281218103
-1.0022556 -0.46389934 -1.1544218 4281349432
-0.99824381 -0.46444806 -1.1543844 4281152567
-0.96118194 -0.46229479 -1.1536136 4282729534
-0.95656025 -0.46117419 -1.1507804 4284770912
-0.95294887 -0.4624483 -1.1517922 4285888624
-0.94825661 -0.46190703 -1.1506786 4285492840
-0.94287848 -0.46289563 -1.1515003 4288774533
-1.2159064 -0.45522606 -1.1505015 4284511091
-1.1902852 -0.45554626 -1.1512594 4283127893
-1.1875447 -0.45731649 -1.1525089 4283062356
-1.1839557 -0.45830867 -1.1543995 4282403657
-1.0305823 -0.45935935 -1.1534824 4281284156
-1.0275224 -0.45882171 -1.1525687 4281218361
-1.0230275 -0.45657074 -1.1512951 4281284155
-1.0156686 -0.45626101 -1.150574 4281414969
-1.0131387 -0.45709437 -1.1525865 4281414713
-1.009752 -0.45954943 -1.1545293 4281283895
-0.95680916 -0.45938355 -1.151419 4287140747
-0.95372021 -0.45722145 -1.1540636 4287923329
-0.94692725 -0.45679665 -1.1511009 4284968034
-0.94363815 -0.45671463 -1.1526933 4288904831
-0.93790543 -0.45610777 -1.1516446 4290550685
-1.1902699 -0.45129699 -1.1513627 4283259733
-1.1881289 -0.45241877 -1.1531823 4283259732
-1.0203311 -0.45443174 -1.1517837 4281284156
-1.0176995 -0.45419294 -1.1525989 4281218362
-1.0145694 -0.4544979 -1.1535243 4281218104
-0.95633543 -0.4525643 -1.1520222 4287467399
-0.95424795 -0.45156059 -1.150558 4285694067
-0.94723892 -0.45275709 -1.1517496 4284770908
-0.94258446 -0.45309615 -1.1530097 4286409059
-0.93930942 -0.4548108 -1.153509 4290945702
-1.2084813 -0.4483124 -1.1502055 4284839528
-1.1955476 -0.44547713 -1.1509157 4283261519
-1.1921635 -0.44734684 -1.1523812 4283589467
-1.1896315 -0.44958308 -1.1540236 4283589216
-0.95626473 -0.4482016 -1.1536667 4289110167
-0.95403928 -0.44606832 -1.1512648 4286414707
-0.94788569 -0.44866362 -1.1509742 4285033567
-0.94377732 -0.44788879 -1.1515212 4287787884
-1.2977852 -0.44068483 -1.1530762 4285562198
-1.19626 -0.44367105 -1.1511756 4283195726
-1.1935741 -0.44294444 -1.1534203 4283786578
-0.95554662 -0.44360262 -1.1529686 4287530366
-0.95336664 -0.44195509 -1.1518419 4286413934
-0.94833106 -0.44145346 -1.1512754 4284702285
-0.94242537 -0.44182405 -1.150812 4285884758
-1.1962987 -0.43786699 -1.1509163 4283195982
-1.1927567 -0.43706411 -1.1523703 4283523920
-0.95217544 -0.43650958 -1.1523827 4286217325
-0.9472326 -0.43806368 -1.1518494 4292331197
-0.9437961 -0.43643534 -1.1505777 4291078052
-1.2976916 -0.43418598 -1.1531526 4285821798
-1.2942762 -0.43245462 -1.1509173 4286415724
-0.95044428 -0.43465787 -1.1527674 4286216555
-0.94811189 -0.43439773 -1.1513305 4287988090
-0.93842095 -0.43175611 -1.15005 4291146153
-1.2967412 -0.42729521 -1.1529076 4283583581
-1.2943455 -0.42670012 -1.1507654 4283714652
-1.1870663 -0.42658076 -1.1511798 4283654994
-1.2963276 -0.42205098 -1.1524626 4283387746
-1.2936888 -0.42170715 -1.1506429 4283518304
-1.1444318 -0.42301041 -1.1546702 4284048997
-1.2971088 -0.41753179 -1.1523809 4284508020
-1.2949779 -0.41967881 -1.1500537 4283125345
-1.3008705 -0.41310191 -1.1509695 4287338916
-1.2984282 -0.41371638 -1.1526947 4287009683
-1.1511643 -0.41091007 -1.1549197 4285167990
-1.1519949 -0.40818238 -1.1539046 4286022530
-0.94129902 -0.40698278 -1.1525868 4288845442
-0.93842131 -0.40580764 -1.1533465 4290288537
-1.1522808 -0.40304661 -1.1530616 4286153076
-0.94204694 -0.40412736 -1.1536894 4288585098
-0.9373185 -0.40319607 -1.1537796 4291143588
-0.93267334 -0.40140939 -1.1521399 4291011494
-0.91639596 -0.40023568 -1.1515107 4284440923
-0.91281462 -0.40017709 -1.1517235 4282399289
-0.90966934 -0.40010688 -1.1510166 4284045898
-1.1769271 -0.3956936 -1.1505738 4282995807
-1.151708 -0.39706194 -1.1523647 4284509263
-0.94242924 -0.39715102 -1.1521755 4290161824
-0.9368028 -0.39603668 -1.1531576 4292523957
-0.93331683 -0.39619225 -1.1511527 4289826930
-0.92633742 -0.3965424 -1.15101 4288913805
-0.92232591 -0.3960202 -1.150663 4284308570
-0.91777027 -0.39671966 -1.1520047 4281675055
-0.91370451 -0.3970499 -1.1504024 4281148457
-1.1780025 -0.39318013 -1.150563 4285365357
-1.1509149 -0.39337391 -1.15242 4283917895
-1.1489455 -0.39243039 -1.1542931 4283983692
-0.94586074 -0.39309263 -1.1540619 4289506972
-0.94205618 -0.39244965 -1.1544704 4290623142
-0.93743885 -0.39110667 -1.1516159 4289048229
-0.93173909 -0.39132792 -1.1516397 4291806878
-0.92800927 -0.39092648 -1.1508402 4287532937
-0.92289966 -0.39108956 -1.1511129 4282005313
-0.91870922 -0.39359522 -1.1533422 4282595383
-0.91466844 -0.39111128 -1.1547999 4283647034
-1.1788346 -0.38866436 -1.1500953 4286287212
-1.1514195 -0.38856265 -1.1512498 4283852858
-1.148993 -0.38858214 -1.1533711 4283852866
-0.94243419 -0.38876563 -1.1549726 4289113495
-0.93597776 -0.38777852 -1.1528802 4288456602
-0.93307942 -0.38672939 -1.1514543 4285427557
-0.92880535 -0.387389 -1.1514809 4285362273
-0.92452836 -0.38948858 -1.1523426 4282400324
-0.91518348 -0.38910654 -1.1549015 4282921524
-0.91347516 -0.3873179 -1.1544132 4282922037
-1.1513879 -0.38255391 -1.1507044 4284312384
-1.1477956 -0.38262293 -1.1532567 4283853122
-0.93215412 -0.38290253 -1.1533666 4286217323
-0.92790508 -0.38220561 -1.1510586 4288386682
-0.92402941 -0.38375777 -1.1506101 4284177236
-0.91052681 -0.38010895 -1.15198 4282593844
-0.90925968 -0.38011897 -1.1516914 4282856503
-1.150714 -0.37813333 -1.1506256 4285035342
-1.1480727 -0.37875602 -1.1530588 4284772940
-0.93073642 -0.37896001 -1.1543516 4286942841
-0.92810249 -0.37828475 -1.1527282 4289635470
-0.92410946 -0.37658513 -1.1503868 4283582023
-0.91090006 -0.37747648 -1.1542333 4283123262
-0.90836024 -0.37612337 -1.1513778 4282792510
-1.1479853 -0.37301096 -1.1525748 4285429845
-0.92672634 -0.37293482 -1.1528537 4290489251
-0.9240315 -0.37176147 -1.1510493 4283975757
-0.90837127 -0.37244982 -1.1529533 4282989369
-1.1479896 -0.36759308 -1.1524752 4285627219
-0.92589444 -0.36693761 -1.1537092 4290093471
-0.92419565 -0.36676678 -1.1516614 4284370514
-0.9066121 -0.36784813 -1.1536336 4282725430
-1.1567019 -0.36297801 -1.1535207 4287206497
-1.1521462 -0.36184612 -1.1522526 4286417499
-1.1490084 -0.36356655 -1.1526867 4286088278
-0.92519748 -0.36429656 -1.1547937 4287526774
-0.92318624 -0.36246982 -1.1521434 4283186752
-0.91178799 -0.3603726 -1.1527563 4282596927
-0.90963429 -0.36039245 -1.1528866 4283255884
-0.90321892 -0.3619259 -1.1526731 4283384648
-1.171599 -0.35952917 -1.1506056 4287536514
-1.1681657 -0.35882676 -1.1503373 4286615148
-0.92159581 -0.35814115 -1.1519231 4282596153
-0.91549736 -0.35833782 -1.152491 4281413161
-0.9125247 -0.35724941 -1.1525186 4282398520
-0.90747821 -0.35580558 -1.1508719 4283516748
-0.90074074 -0.35743228 -1.1526836 4283385417
-0.89898199 -0.3558158 -1.1522003 4283516488
-0.92135203 -0.35266992 -1.152876 4282859068
-0.91880047 -0.35078743 -1.1526997 4282530614
-0.9108839 -0.3527616 -1.1517749 4282990920
-0.90721238 -0.35299417 -1.1523085 4283583572
-0.90323555 -0.35132325 -1.1515635 4283978074
-0.89696366 -0.35194549 -1.1528565 4283580740
-0.89458585 -0.35127613 -1.1510854 4283645509
-0.93213338 -0.34518635 -1.1546768 4285621085
-0.92056483 -0.34753203 -1.1526855 4282136629
-0.91893256 -0.34600848 -1.1513908 4283651400
-0.911143 -0.34772128 -1.1510915 4283384395
-0.90887511 -0.3489216 -1.1533175 4283780690
-0.90091652 -0.34871486 -1.1520467 4284044379
-0.89818203 -0.34736723 -1.1514755 4284175965
-0.89245677 -0.34688079 -1.1525158 4283319112
-0.88920307 -0.34534064 -1.1512003 4283779406
-0.95144254 -0.34243393 -1.1507338 4291935419
-0.94388509 -0.34073782 -1.1543822 4283253578
-0.93636423 -0.34133521 -1.1509901 4286743140
-0.93385023 -0.34064209 -1.1534727 4285754714
-0.92131376 -0.34208992 -1.15386 4284634194
-0.91883612 -0.3425031 -1.1514016 4283585096
-0.91055506 -0.34394395 -1.1518542 4284240468
-0.90954655 -0.34395987 -1.1521933 4283977554
-0.89641529 -0.34412932 -1.1515503 4284897375
-0.8943302 -0.34254518 -1.150596 4284700765
-0.88788551 -0.34438214 -1.152702 4286415477
-0.95119828 -0.33544013 -1.15083 4287593842
-0.94660771 -0.33728403 -1.1527106 4286936183
-0.9413408 -0.33604714 -1.1513081 4287922810
-0.93748778 -0.33713415 -1.1526899 4286675046
-0.93464929 -0.33812016 -1.1528223 4286019164
-0.92698896 -0.33810213 -1.1533692 4288190600
-0.92431843 -0.33776465 -1.1530076 4288845954
-0.91866547 -0.33812597 -1.1525594 4283188803
-0.91008258 -0.33693278 -1.1503601 4284174420
-0.89153713 -0.33852273 -1.1502566 4283648591
-0.96576679 -0.33065614 -1.1532086 4287271038
-0.96260738 -0.33059627 -1.1508147 4286745707
-0.95793939 -0.33056983 -1.1511946 4288584822
-0.95209569 -0.33165359 -1.1514807 4288846467
-0.94651377 -0.33201268 -1.1513042 4288123509
-0.94267458 -0.33255967 -1.1525999 4288187001
-0.93911684 -0.33373174 -1.1538937 4285883483
-0.91609156 -0.33142418 -1.1546479 4284635221
-0.98069298 -0.32817239 -1.1501353 4287467900
-0.9772678 -0.32730854 -1.1506711 4287601281
-0.97149533 -0.32799578 -1.1506577 4288386183
-0.9667179 -0.32947758 -1.1514403 4287139704
-0.96259916 -0.32965443 -1.1527768 4286548078
-0.95767689 -0.32973364 -1.1526624 4286350180
-0.95245296 -0.32920629 -1.1524649 4286349660
-0.94772446 -0.32968301 -1.1529611 4287006052
-0.94432545 -0.32998735 -1.1538268 4287860084
-0.91579908 -0.32773075 -1.1525488 4284701016
-0.91391695 -0.32644626 -1.1539872 4285688160
-0.97644627 -0.32385045 -1.1517236 4288585865
-0.97352463 -0.32440254 -1.151018 4287403894
-0.96937895 -0.3248581 -1.1513411 4287139432
-0.91582203 -0.32320938 -1.1515204 4285624422
-0.91304439 -0.32268849 -1.1526028 4285755489
-0.91647422 -0.31785172 -1.1502941 4283715667
-0.91174346 -0.31742579 -1.150449 4285228123
-0.9144938 -0.31387347 -1.1501224 4287137152
-0.92525798 -0.26206231 -1.1540323 4284700768
-0.92371535 -0.26094416 -1.153569 4285226854
-0.92554522 -0.25773013 -1.1539154 4286739836
-0.92279023 -0.25739056 -1.1520135 4285950320
-0.91819549 -0.25702694 -1.1521559 4285688432
-0.92532349 -0.25475872 -1.1524441 4286213753
-0.92149931 -0.25267759 -1.1528685 4285752943
-0.91950047 -0.25250992 -1.150758 4285621869
-0.91453487 -0.25236002 -1.1506732 4287002750
-0.92061299 -0.24786204 -1.1536365 4285358443
-0.91928989 -0.24699914 -1.1513129 4285555565
-0.91353244 -0.24668722 -1.1513767 4286477436
-0.9203738 -0.24271289 -1.1544541 4285490030
-0.91879582 -0.24235454 -1.1520165 4284305246
-0.91388154 -0.24111289 -1.1510137 4286345852
-0.92012686 -0.23809512 -1.1548069 4285226600
-0.91852349 -0.23742284 -1.1525151 4284963686
-0.91407949 -0.23665415 -1.1509631 4285621362
-0.90948886 -0.23648134 -1.1505518 4286871937
-0.92000771 -0.23034324 -1.154646 4285818995
-0.91805542 -0.23153664 -1.151989 4285884530
-0.91367942 -0.23317751 -1.1508119 4285818997
-0.90836775 -0.23253456 -1.151421 4287135110
-0.91858822 -0.22673813 -1.1527929 4286805374
-0.91346222 -0.22790772 -1.1511118 4286214269
-0.9082526 -0.22830474 -1.1515996 4289172383
-0.91798657 -0.22232968 -1.1522217 4287790985
-0.91338456 -0.22266974 -1.1516031 4285753976
-0.90869939 -0.22309701 -1.1513932 4289236120
-0.9182812 -0.21695182 -1.1527874 4287593861
-0.91255295 -0.21765234 -1.1519674 4285425010
-0.9096036 -0.21643275 -1.1508923 4286477437
-0.92017812 -0.21133815 -1.1547573 4285552997
-0.91815186 -0.21228817 -1.1526549 4288842901
-0.91228414 -0.21281417 -1.1531368 4285162612
-0.90916508 -0.21200544 -1.1517656 4285951612
-0.91778159 -0.20707096 -1.1524031 4287132800
-0.91248924 -0.20809478 -1.1542351 4285294710
-0.90785247 -0.20899069 -1.1529346 4286149504
-0.92022353 -0.20033194 -1.1545401 4286147448
-0.91753781 -0.20195259 -1.1523117 4288185743
-0.91350412 -0.20295535 -1.1545392 4286346109
-0.92093879 -0.1973217 -1.1546227 4285818481
-0.91736525 -0.19717461 -1.1522834 4288777365
-0.91394484 -0.19791079 -1.1543968 4286477440
-0.92123204 -0.19117481 -1.1540813 4285949294
-0.91741192 -0.19284865 -1.1520662 4289368730
-0.9146167 -0.19261974 -1.1516433 4289370271
-0.9215169 -0.18743099 -1.1542859 4285225573
-0.91762859 -0.18734413 -1.1516566 4289499802
-0.91413677 -0.18761408 -1.1506727 4289962150
-0.92083931 -0.18262865 -1.1543554 4285226347
-0.91794825 -0.18250626 -1.1519926 4289106074
-0.91460896 -0.1824435 -1.150473 4289961637
-0.92074782 -0.17856862 -1.1544925 4283844439
-0.91812485 -0.17782336 -1.1521087 4288579474
-0.91376477 -0.17714944 -1.1512781 4286542205
-0.9171437 -0.17308824 -1.1533653 4289434785
-0.91340595 -0.17287934 -1.1511663 4287857552
-0.91704375 -0.16768602 -1.1524525 4286804353
-0.91424084 -0.16926816 -1.1511168 4287068293
-0.86112607 -0.79052168 -1.146585 4286543470
-0.85925573 -0.79052949 -1.1467743 4285757021
-0.85789257 -0.78955978 -1.148445 4288321677
-0.88528872 -0.72583699 -1.1452236 4290487731
-0.87531924 -0.72598791 -1.1452932 4290484392
-0.87138051 -0.72504479 -1.1451395 4290681769
-0.88046628 -0.72191298 -1.1455244 4292458178
-0.87794292 -0.72295409 -1.1457236 4290945199
-0.87285793 -0.72118092 -1.1462702 4290484390
-0.86741424 -0.72049898 -1.146557 4290812580
-0.86320609 -0.72059417 -1.1470364 4290747558
-0.88156652 -0.71923637 -1.1460191 4291471798
-0.87688529 -0.71798718 -1.1469898 4290945199
-0.87198544 -0.71674275 -1.1480616 4290615973
-0.86813766 -0.71728784 -1.1488119 4291075494
-0.88606733 -0.71283084 -1.1458062 4290749614
-0.88409638 -0.71086562 -1.1461865 4290748075
-0.87746602 -0.71327609 -1.1478831 4290945197
-0.87328935 -0.7120676 -1.1488998 4290154651
-0.88132435 -0.7079286 -1.1477041 4291274677
-0.87748736 -0.70767325 -1.1491114 4289958046
-0.88370395 -0.70188397 -1.1471848 4290880689
-0.87825644 -0.70499641 -1.1492486 4290023839
-0.88142753 -0.69861025 -1.1489854 4290748332
-0.8871305 -0.690983 -1.1462327 4290420907
-0.88344699 -0.6919046 -1.1484926 4290749102
-0.88673395 -0.68416739 -1.1471518 4290156197
-0.88482654 -0.68489242 -1.1491933 4290551464
-0.88696384 -0.67785239 -1.1487551 4290616489
-0.88883358 -0.67296475 -1.1470104 4289958560
-0.8911832 -0.6666193 -1.1470706 4289695645
-0.88920516 -0.66682523 -1.1493695 4290419108
-0.89304638 -0.66189098 -1.1481084 4289827743
-0.89630061 -0.65689003 -1.1475459 4289565858
-0.89473945 -0.65871316 -1.1475036 4289565343
-0.90107954 -0.65058911 -1.1456367 4288186260
-0.89858902 -0.65285879 -1.1478277 4289501092
-0.90522301 -0.64753675 -1.1463721 4288381844
-0.90249521 -0.64832079 -1.147446 4288580760
-0.88212228 -0.63599819 -1.1464797 4290486448
-0.87772924 -0.63748688 -1.1460578 4290683308
-0.87489444 -0.63834912 -1.1455294 4291012781
-0.89132041 -0.631567 -1.1472836 4293381605
-0.88751912 -0.63321489 -1.1474046 4293118173
-0.88396704 -0.63326818 -1.1483397 4292131018
-0.89665782 -0.62648827 -1.147491 4293446630
-0.89361715 -0.628977 -1.1477391 4293447144
-0.90176904 -0.62173283 -1.1474746 4291803339
-0.89911687 -0.62347233 -1.1474004 4293249505
-0.9068886 -0.61657238 -1.1470023 4286606982
-0.90420407 -0.6190086 -1.1472882 4288646047
-0.8954699 -0.61623669 -1.1456931 4293971173
-0.8922832 -0.61561912 -1.147 4293972194
-0.88773358 -0.61685431 -1.1486943 4292593868
-0.8846249 -0.61740148 -1.1498849 4292662985
-0.91643602 -0.61070567 -1.1461827 4290028473
-0.91203034 -0.61178583 -1.1469885 4287594648
-0.90887141 -0.61321408 -1.1477708 4285818238
-0.90254766 -0.61103708 -1.1472378 4290618293
-0.89778227 -0.61232316 -1.1475406 4293839328
-0.89377397 -0.61361784 -1.1486344 4294233571
-0.92667371 -0.6086145 -1.1478386 4290490048
-0.92237037 -0.60790914 -1.1476047 4289897658
-0.91768748 -0.6082592 -1.1481757 4289173422
-0.91380066 -0.60940236 -1.1486251 4287791769
-0.90787601 -0.60845888 -1.14891 4286212479
-0.90391368 -0.60917097 -1.1489111 4291539649
-0.92251015 -0.59759575 -1.1488417 4287862917
-0.91721249 -0.59730232 -1.14821 4287009894
-0.9281736 -0.50020623 -1.1496019 4289574288
-0.93111563 -0.49674964 -1.1488004 4290431925
-0.92778075 -0.49711066 -1.1475718 4288652668
-0.92347729 -0.49702793 -1.1478032 4287338597
-0.91634989 -0.49526823 -1.1491234 4289369252
-0.91375113 -0.49503851 -1.1481639 4287527817
-1.197018 -0.49152884 -1.1483048 4280298810
-1.1929747 -0.49254289 -1.1472842 4280692797
-1.1883121 -0.49143252 -1.1470885 4280758588
-0.93234491 -0.49182856 -1.1471391 4290626999
-0.92693365 -0.49285471 -1.147374 4286481242
-0.92166615 -0.49343035 -1.1465572 4286090321
-0.91864908 -0.49306875 -1.1459639 4288453756
-0.91399312 -0.49401182 -1.145721 4291539642
-1.1989757 -0.48765543 -1.1479543 4280363573
-1.1861197 -0.48893556 -1.1488019 4280954684
-1.1826292 -0.48727494 -1.1474956 4280954939
-1.1782988 -0.48516506 -1.1474516 4281020732
-1.1704469 -0.48511893 -1.1493164 4281087297
-1.1670786 -0.48614317 -1.1478407 4281021504
-1.1626023 -0.48844075 -1.1474551 4281218112
-1.1573068 -0.4889735 -1.1476973 4281152318
-1.1523013 -0.48694471 -1.1479686 4281283646
-1.1488981 -0.48546138 -1.1478159 4281349695
-0.93550998 -0.48707113 -1.1480875 4292003034
-0.93408632 -0.48852706 -1.1473372 4291281866
-0.92765617 -0.48826486 -1.1464578 4285691736
-0.92240071 -0.48906943 -1.1470499 4286218587
-0.91757363 -0.48835441 -1.1474788 4289962409
-0.91386127 -0.48757812 -1.1463763 4290357176
-1.2767708 -0.4814471 -1.1487436 4286349429
-1.2742375 -0.48281845 -1.1487154 4288322953
-1.2010015 -0.48269072 -1.1485157 4280166447
-1.1987264 -0.48396745 -1.146382 4280298036
-1.1767656 -0.48420355 -1.1483068 4281152061
-1.1727902 -0.48403427 -1.1474897 4281152321
-1.1690487 -0.48410568 -1.1463295 4280955968
-1.1463537 -0.48387909 -1.1478138 4281349695
-1.1427647 -0.48156172 -1.1477134 4281283902
-1.1396661 -0.48047143 -1.1494858 4281087549
-1.0218821 -0.4807733 -1.1498322 4281545273
-1.0065655 -0.48065856 -1.1496274 4281283900
-1.0019531 -0.4803063 -1.1479859 4280889912
-0.99738258 -0.48007429 -1.147334 4281020982
-0.99281222 -0.48011315 -1.145969 4281152055
-0.98689413 -0.48018584 -1.146806 4281217849
-0.98224211 -0.48035634 -1.1473759 4281020470
-0.97784334 -0.48035362 -1.1467903 4281019956
-0.97108746 -0.48020071 -1.1479938 4282993742
-0.96730709 -0.4809179 -1.1476209 4283782225
-0.96254575 -0.48175842 -1.1472987 4284701523
-0.95893133 -0.48130828 -1.1458199 4284372046
-0.93609244 -0.48356628 -1.1467206 4291673298
-0.9332397 -0.4837192 -1.1458542 4286217315
-0.9276396 -0.48319721 -1.1476061 4287134586
-0.92248756 -0.48201838 -1.1488348 4291477948
-0.91795695 -0.48135683 -1.1478927 4288716157
-0.9115271 -0.4844712 -1.1470844 4287395972
-0.90933907 -0.48491836 -1.1463571 4286409850
-1.2966444 -0.47562438 -1.147184 4284443238
-1.2926979 -0.47593892 -1.1475391 4284837224
-1.2879868 -0.47750518 -1.147952 4286086509
-1.2823511 -0.47831956 -1.1480798 4285295957
-1.2776144 -0.47850433 -1.1467068 4285428320
-1.2746595 -0.47993788 -1.1459315 4288587152
-1.2019666 -0.47829449 -1.1483486 4279903787
-1.1995722 -0.47874421 -1.1450462 4280297779
-1.1406208 -0.47942871 -1.1462384 4281284158
-1.1384585 -0.47915784 -1.146693 4281152830
-1.1348398 -0.47648329 -1.1451004 4281153088
-1.0351716 -0.47560725 -1.14941 4281742395
-1.030995 -0.47597167 -1.1483406 4281873210
-1.0274539 -0.47713462 -1.1483124 4281676860
-1.0209645 -0.47686282 -1.1473833 4281218105
-1.0172101 -0.4769001 -1.1478324 4281349178
-1.0123881 -0.4786227 -1.1476917 4281283128
-1.0075127 -0.47978911 -1.1472641 4281217850
-1.0036999 -0.47940755 -1.1460243 4281218107
-0.99217784 -0.47903165 -1.1480303 4281151799
-0.98809475 -0.47903663 -1.148788 4281151799
-0.98216933 -0.47560298 -1.147315 4281744708
-0.97748047 -0.4771328 -1.1474749 4282073672
-0.97323239 -0.47893161 -1.1474221 4282533706
-0.96753764 -0.47665295 -1.1474508 4281481274
-0.96119392 -0.47833809 -1.1488882 4284043335
-0.9577015 -0.47648525 -1.1471497 4284108873
-0.95266545 -0.47727326 -1.1468772 4284371270
-0.94913894 -0.47600031 -1.1456954 4286671970
-0.94034123 -0.47757661 -1.149776 4287393915
-0.93704617 -0.47878551 -1.1469184 4291606736
-0.93117589 -0.47816053 -1.1476945 4287530371
-0.92854357 -0.4780952 -1.1461451 4287002485
-0.91617137 -0.47996429 -1.1462325 4287992409
-0.9116714 -0.4792259 -1.1486324 4285883729
-1.305282 -0.47376889 -1.1488985 4284704605
-1.3022376 -0.47445583 -1.1479495 4284506969
-1.2984655 -0.47460401 -1.1476833 4284245599
-1.2020698 -0.4734017 -1.1470858 4279837738
-1.0366215 -0.47334954 -1.1471043 4281545530
-1.0320661 -0.47115129 -1.146551 4281218877
-1.027382 -0.47202229 -1.1472868 4281415485
-1.0231358 -0.47173256 -1.1462872 4281546302
-1.0159345 -0.47183445 -1.1471043 4281480763
-1.01228 -0.47213677 -1.1472647 4281612606
-1.0072246 -0.47202739 -1.1476247 4281809215
-1.0030831 -0.47082508 -1.147125 4281809213
-0.99744195 -0.47240618 -1.1475409 4281414458
-0.99217016 -0.47097757 -1.1462809 4281153087
-0.98741597 -0.47215787 -1.1461245 4281219134
-0.98477268 -0.47398525 -1.145131 4281350719
-0.9670108 -0.47094646 -1.1471395 4281479734
-0.96275294 -0.47232705 -1.1459036 4283255364
-0.95669717 -0.47167099 -1.1478187 4285954162
-0.95367455 -0.47197494 -1.1471288 4286478963
-0.94723237 -0.47287506 -1.146672 4287794306
-0.94106472 -0.4715499 -1.1484898 4286211434
-0.93813777 -0.4721154 -1.1463439 4288713884
-0.93065155 -0.47206995 -1.1457742 4286280043
-0.92894965 -0.47268197 -1.1470207 4288515198
-1.305548 -0.46849883 -1.1478703 4285099368
-1.3042738 -0.46852431 -1.1483049 4285034597
-1.2021445 -0.46871924 -1.145611 4279968298
-1.1878875 -0.46787065 -1.1475596 4280823871
-1.1826859 -0.46812731 -1.1472998 4281152578
-1.1784518 -0.46614459 -1.1468693 4281218113
-1.0366371 -0.46638545 -1.1478646 4281284157
-1.0327783 -0.46697405 -1.1480153 4281218876
-1.0283722 -0.46713755 -1.1490357 4281153082
-1.0171816 -0.46774539 -1.1466428 4281415484
-1.00086 -0.46906826 -1.1482272 4281677627
-0.99647075 -0.46922493 -1.1465409 4281218620
-0.992706 -0.46857479 -1.1477233 4281218103
-0.98764682 -0.46821371 -1.1477077 4280955188
-0.9825477 -0.46721861 -1.14738 4280823346
-0.97743076 -0.46765465 -1.1476804 4280954418
-0.97254199 -0.4690465 -1.1475058 4281217591
-0.96897167 -0.46984121 -1.1479019 4281349175
-0.96223176 -0.46890655 -1.1486634 4281545781
-0.95797437 -0.46721095 -1.146732 4281480501
-0.9523716 -0.46693605 -1.1480148 4285231208
-0.94753575 -0.46764544 -1.1479044 4286480507
-0.94175625 -0.46726063 -1.1472925 4286541167
-0.93070579 -0.46691453 -1.1457 4288843138
-0.9294076 -0.46882072 -1.1471434 4294169549
-1.2263968 -0.46335992 -1.1468254 4287206034
-1.2222652 -0.46196485 -1.147269 4287468177
-1.2192478 -0.46040255 -1.1473787 4287336593
-1.1904563 -0.46259069 -1.1470405 4281021762
-1.1893612 -0.46240017 -1.1481661 4281219396
-1.1761638 -0.46468574 -1.1481259 4281415234
-1.1736747 -0.46388635 -1.1470608 4281349956
-1.0320523 -0.46302184 -1.1492711 4281153339
-1.0273918 -0.46251765 -1.149604 4281152825
-1.0240979 -0.46212396 -1.1490197 4281218362
-1.0179907 -0.4620195 -1.148229 4281349691
-0.95597577 -0.46346864 -1.1476399 4284573796
-0.95389032 -0.46394441 -1.1465765 4286352263
-0.9475438 -0.46258831 -1.148113 4285494641
-0.94272929 -0.46252415 -1.1475356 4286343532
-0.93741363 -0.4617759 -1.1456637 4288183917
-0.93146467 -0.46173021 -1.1460154 4290945179
-1.2166506 -0.4577215 -1.1477833 4287008399
-1.2134492 -0.45609337 -1.1469893 4287074696
-1.1905038 -0.45677298 -1.1472096 4281812046
-1.1895552 -0.45777446 -1.1483756 4282470228
-1.1690321 -0.45974213 -1.1453519 4281218886
-1.0257827 -0.45936775 -1.149935 4281218361
-1.0212934 -0.45773083 -1.1489757 4281218363
-1.0173759 -0.4571642 -1.1485493 4281283898
-1.0146211 -0.45746073 -1.1495655 4281480250
-0.95604354 -0.45923916 -1.149181 4286284931
-0.95278251 -0.45733595 -1.1470246 4286287242
-0.94587028 -0.45823735 -1.1472201 4286214510
-0.944058 -0.45829439 -1.1473668 4286672752
-0.93855935 -0.45659101 -1.1459675 4290024321
-0.93317413 -0.45685115 -1.1467522 4290288279
-1.2962792 -0.45062649 -1.1473222 4284574564
-1.210961 -0.45265144 -1.1472874 4285298541
-1.2081776 -0.45112765 -1.1469454 4284443738
-1.1911697 -0.45213592 -1.1469587 4281484622
-1.1896806 -0.45353124 -1.1492014 4282602582
-1.0183041 -0.45442757 -1.149457 4281152312
-0.95778072 -0.45368463 -1.1450272 4285421411
-0.95243835 -0.45256531 -1.1487658 4285364333
-0.94592887 -0.4524385 -1.1478958 4287528313
-0.94408631 -0.4524743 -1.1480653 4289894291
-0.93961656 -0.45288306 -1.1467403 4292587418
-1.2113297 -0.4492667 -1.1491687 4284576625
-1.2075763 -0.44819313 -1.1484202 4284313440
-1.2028419 -0.44730708 -1.1472126 4283260744
-1.1973622 -0.44615951 -1.1474147 4282406214
-1.1929722 -0.44803506 -1.1478797 4282142029
-1.1898458 -0.44952893 -1.1492234 4282734419
-0.95197242 -0.44725332 -1.148991 4285364330
-0.94626218 -0.44683954 -1.1467729 4287068016
-0.94377297 -0.44762039 -1.1481128 4290024079
-1.2008944 -0.44338962 -1.1488551 4283130187
-1.1984932 -0.44208902 -1.1491938 4283130187
-0.95116395 -0.44332409 -1.1490334 4285035103
-0.94665879 -0.44086006 -1.1459465 4286805613
-0.94420391 -0.4431853 -1.1468484 4288840569
-1.2016941 -0.43936464 -1.1474836 4283458901
-1.1975993 -0.4384307 -1.1490035 4283195983
-1.1948636 -0.43747288 -1.1498399 4283195982
-0.95058703 -0.43762469 -1.1494975 4285493856
-0.94732028 -0.43680707 -1.1464014 4286543724
-0.94384164 -0.4375734 -1.1487552 4291669932
-1.2936118 -0.43169451 -1.1495401 4284967780
-1.200482 -0.43337271 -1.1469342 4283523668
-1.1970928 -0.43234748 -1.1474044 4283393363
-0.94742048 -0.43384808 -1.1490738 4286740333
-0.94324511 -0.43387643 -1.1487305 4284243783
-0.93886071 -0.43173057 -1.1488816 4289763726
-1.2919995 -0.42771119 -1.1490779 4284638050
-1.2881465 -0.42827204 -1.1461262 4285364073
-1.1974236 -0.42538819 -1.1450049 4282532424
-1.188117 -0.42655286 -1.1497706 4283195727
-0.94501412 -0.42962959 -1.1472995 4284507985
-0.94254369 -0.42858008 -1.1472023 4284441421
-0.93862218 -0.42671898 -1.1481187 4290292383
-1.2924706 -0.421536 -1.1490713 4283517789
-1.1961675 -0.42090723 -1.1454084 4282270029
-1.1938405 -0.42143756 -1.1455892 4283587149
-0.94215775 -0.42306468 -1.1467739 4284834897
-0.93890017 -0.42201185 -1.1479557 4289962905
-1.3118508 -0.41735783 -1.1454469 4287669170
-1.3075991 -0.41580969 -1.1463562 4286813596
-1.3025128 -0.41562912 -1.1458745 4286745488
-1.2974041 -0.41696033 -1.1473888 4285759625
-1.2928907 -0.41719407 -1.1469418 4283453026
-1.2892243 -0.41746831 -1.1468375 4283518046
-1.1878167 -0.4171783 -1.1457096 4283393362
-1.1820395 -0.41561377 -1.1486944 4283327570
-0.94514596 -0.41960374 -1.1460265 4286084707
-0.94402516 -0.41961348 -1.1458218 4285428057
-0.93511248 -0.41502863 -1.1458164 4285293154
-0.93447518 -0.41504759 -1.146463 4284240979
-1.3055682 -0.41449165 -1.1482054 4287009692
-1.3022907 -0.41419506 -1.1482269 4287207073
-1.2987058 -0.4145934 -1.1481061 4287141534
-1.2883786 -0.41470975 -1.1454102 4283452511
-1.1841495 -0.41355938 -1.1460377 4283262289
-0.93725979 -0.41249454 -1.1457322 4286211182
-0.93308842 -0.41205555 -1.1456198 4284569683
-1.1802422 -0.40659988 -1.1454682 4283525719
-0.93097144 -0.40508461 -1.1455363 4286608723
-0.92670876 -0.40635633 -1.1456658 4291539331
-0.92338604 -0.4071092 -1.1454177 4285226069
-0.91792297 -0.406102 -1.1458297 4282725171
-1.1805152 -0.40059793 -1.1456746 4282271059
-1.1772863 -0.40085801 -1.1462777 4282600532
-1.174381 -0.40068805 -1.1471068 4282862936
-0.94159859 -0.40162826 -1.1458278 4290231738
-0.93887895 -0.40172786 -1.1464262 4291416794
-0.93077964 -0.40221786 -1.1463069 4290749312
-0.92768353 -0.40261087 -1.1462088 4291868034
-0.92259836 -0.4022117 -1.1463683 4287202930
-0.91798025 -0.40219358 -1.1464317 4285163347
-0.91393185 -0.40092024 -1.1469188 4285229136
-0.90942913 -0.40003029 -1.1464461 4282002481
-1.1813668 -0.3971017 -1.1470329 4283126878
-1.1772135 -0.39816415 -1.1481194 4282337367
-0.94604743 -0.39694637 -1.1471658 4290626239
-0.94248277 -0.39919543 -1.1479683 4289641135
-0.93771553 -0.39781758 -1.1476196 4287995804
-0.93118852 -0.39572188 -1.1463073 4290359436
-0.92856336 -0.3967216 -1.1454065 4292068508
-0.92132807 -0.39543334 -1.1457309 4286483073
-0.918253 -0.39664435 -1.1464349 4282136894
-0.91345137 -0.39834666 -1.1484835 4283583813
-0.90745944 -0.39825293 -1.1474748 4282727224
-0.90425706 -0.39658472 -1.1460929 4283253310
-1.1804595 -0.39363885 -1.1495029 4286022253
-1.1785814 -0.39388269 -1.1493831 4284640875
-0.95045573 -0.39080822 -1.1469033 4293651180
-0.94852573 -0.39283249 -1.1465424 4291874769
-0.93681133 -0.3927334 -1.1487823 4286284673
-0.93305063 -0.39167657 -1.1482446 4286413419
-0.9272092 -0.39208853 -1.1465697 4289046411
-0.92283523 -0.39259338 -1.14741 4286944384
-0.91774756 -0.39389831 -1.1469287 4281742397
-0.91363895 -0.39197463 -1.1459677 4280887344
-1.1787096 -0.38721624 -1.1481504 4286418028
-1.1521518 -0.38981646 -1.149791 4284115260
-0.9524951 -0.38676029 -1.145771 4292136916
-0.93208861 -0.38816845 -1.1493545 4284637010
-0.92753309 -0.38769874 -1.1486733 4288325256
-0.92388535 -0.38687426 -1.1490463 4287074942
-0.91992015 -0.38924032 -1.1458862 4286744693
-1.1801945 -0.38460469 -1.1461285 4286812010
-1.1781585 -0.38343757 -1.1469015 4286615146
-1.1518337 -0.38081473 -1.1494753 4284575813
-0.92711812 -0.38379833 -1.1497101 4287797885
-0.92337018 -0.38423973 -1.1488553 4285100899
-0.91884148 -0.38425276 -1.1462607 4283847242
-1.151252 -0.37682217 -1.1494454 4285101394
-0.92360097 -0.37625074 -1.14979 4283450436
-1.1768759 -0.37147313 -1.1472081 4287734642
-1.1782155 -0.36962879 -1.1463175 4288129139
-1.1501738 -0.36783874 -1.1496056 4285496148
-1.1492839 -0.36784795 -1.149316 4285298771
-0.90527618 -0.36508521 -1.1472185 4284834647
-0.90467298 -0.36510208 -1.1477771 4284307790
-1.1766219 -0.36372465 -1.1462325 4288456848
-1.1732675 -0.36136588 -1.1467811 4289312159
-1.1494631 -0.3643454 -1.1493807 4285496403
-0.90644336 -0.36008009 -1.1454287 4282004538
-0.9024511 -0.36055326 -1.1466768 4285030501
-0.8984077 -0.36056498 -1.1455563 4283779924
-1.1711329 -0.35950169 -1.1482184 4288062862
-1.1675684 -0.35871568 -1.147403 4286879096
-1.164228 -0.35857207 -1.1459227 4286812278
-0.91064489 -0.35834944 -1.1492381 4282398524
-0.90595239 -0.35708031 -1.1464647 4283386192
-0.90433604 -0.35734302 -1.1459563 4283583569
-0.89880389 -0.3559247 -1.1480691 4283253315
-0.92033631 -0.35125601 -1.1471375 4281807408
-0.91963702 -0.35202646 -1.1478132 4282071599
-0.91041332 -0.35124701 -1.1494344 4283122249
-0.90760893 -0.35292509 -1.1464555 4283386193
-0.90219015 -0.3522225 -1.1478289 4283583573
-0.89933521 -0.35051304 -1.1467556 4283254607
-0.89398974 -0.35066807 -1.147082 4284172619
-0.91861004 -0.3477883 -1.1489612 4283321150
-0.91121465 -0.34744519 -1.1474814 4283452243
-0.90972811 -0.34856004 -1.1464005 4283518036
-0.90082717 -0.34853649 -1.1489865 4283188038
-0.89713883 -0.34756154 -1.1475223 4283715415
-0.89355308 -0.34560925 -1.146495 4284701283
-0.88762546 -0.34587234 -1.1473974 4284239697
-0.88409942 -0.34545225 -1.1459167 4286613880
-0.95088005 -0.34243074 -1.1498023 4293317328
-0.93807888 -0.34085166 -1.1493105 4287137387
-0.9204089 -0.34495071 -1.1486857 4284442706
-0.91781813 -0.34243998 -1.1467799 4284045385
-0.91219211 -0.3437818 -1.1473303 4284831836
-0.89575565 -0.34369788 -1.1473522 4283516749
-0.89300197 -0.3421011 -1.1469108 4284371543
-0.88822609 -0.34162927 -1.146695 4284504664
-0.8845489 -0.34433225 -1.1475526 4287140475
-0.96074456 -0.33526236 -1.145395 4288650112
-0.95642972 -0.33562914 -1.1459997 4288252798
-0.95357227 -0.33576497 -1.1472969 4288514947
-0.94604868 -0.33601177 -1.1486527 4289041037
-0.94213176 -0.33778521 -1.148973 4287593847
-0.93944287 -0.33833444 -1.1495758 4287135087
-0.92175013 -0.33725023 -1.149091 4289569933
-0.91716146 -0.3378551 -1.1469983 4285098839
-0.91248155 -0.3391383 -1.1470532 4285292121
-0.89196312 -0.3383024 -1.1474676 4283254345
-0.88940459 -0.33550245 -1.1461376 4283385674
-0.96715891 -0.33079806 -1.1462713 4286680940
-0.96288562 -0.33085573 -1.146915 4286745962
-0.95806342 -0.33110517 -1.1460278 4287599727
-0.95139724 -0.33109432 -1.1466317 4287598447
-0.94756091 -0.33299685 -1.1475817 4288386172
-0.94390249 -0.33418733 -1.1490467 4288844679
-0.92207819 -0.33252457 -1.1482182 4289306504
-0.91713047 -0.33130571 -1.1475427 4285955173
-0.91307098 -0.33129591 -1.1462475 4282990148
-0.88771522 -0.33451104 -1.1455064 4284240983
-0.98640549 -0.32716328 -1.1453822 4286150510
-0.98153645 -0.32792094 -1.1469882 4287339131
-0.97744679 -0.32834786 -1.1473285 4287535736
-0.97149295 -0.32879278 -1.1469698 4287403133
-0.96783912 -0.32951787 -1.1484456 4286811760
-0.96270865 -0.32961106 -1.1485512 4286614377
-0.95757097 -0.32969931 -1.1476914 4286877029
-0.95303947 -0.32977232 -1.1480278 4287008358
-0.94901735 -0.32985845 -1.1497984 4287269736
-0.94008237 -0.32707238 -1.1471255 4286345077
-0.9383809 -0.32686853 -1.1475155 4285490785
-0.92310739 -0.32921034 -1.1461519 4288520330
-0.91646892 -0.32596177 -1.1462011 4285889124
-0.91208535 -0.3277646 -1.1468828 4283780176
-0.98154378 -0.32337344 -1.1464205 4287272050
-0.97741109 -0.32375553 -1.1478162 4287337583
-0.97317743 -0.32417646 -1.1486415 4287206510
-0.96896744 -0.32482901 -1.1478474 4287139686
-0.9369781 -0.32408291 -1.1453998 4285819750
-0.91574669 -0.32151207 -1.1472822 4285164381
-0.91437221 -0.32123125 -1.1467657 4284439894
-0.91553295 -0.31698042 -1.1463799 4284571735
-0.91355807 -0.31759647 -1.1480298 4285953383
-0.9152813 -0.31385535 -1.1493305 4285361001
-0.91174579 -0.31292677 -1.1465086 4284569944
-0.90983975 -0.31316644 -1.1478876 4284569433
-0.91245729 -0.30685407 -1.1460965 4287858828
-0.92093503 -0.25743726 -1.1480699 4285819250
-0.91886884 -0.25633621 -1.1463677 4285358701
-0.91429496 -0.25610465 -1.1469518 4286410107
-0.92014086 -0.25379175 -1.1496545 4285161578
-0.91752058 -0.25220054 -1.147236 4285753457
-0.91431308 -0.2508404 -1.1454579 4285753715
-0.91685832 -0.24623792 -1.1476817 4286279028
-0.91433948 -0.24642488 -1.1456448 4286805375
-0.90920269 -0.24699925 -1.1462969 4286411642
-0.91653329 -0.24210295 -1.1483687 4285357413
-0.91410685 -0.24230203 -1.1460512 4287068545
-0.90823823 -0.24217965 -1.1470442 4286543228
-0.91612846 -0.23785843 -1.1486486 4284238935
-0.91357887 -0.23807523 -1.1459897 4284897380
-0.90920746 -0.23808156 -1.1458424 4286477953
-0.90452552 -0.23608664 -1.1452954 4286806142
-1.1212682 -0.2301773 -1.1450317 4283256137
-0.91609579 -0.23311447 -1.1485494 4283186506
-0.91319394 -0.23263855 -1.1461805 4284239448
-0.90854234 -0.23241474 -1.1464815 4286872200
-0.90388757 -0.23146448 -1.1464307 4286871681
-1.1212898 -0.22656913 -1.1458598 4284968791
-1.119965 -0.22622155 -1.1467927 4284044632
-0.91590899 -0.2285708 -1.1488596 4285490029
-0.9127391 -0.22738655 -1.1465358 4285555823
-0.90778816 -0.22924951 -1.1473682 4286872201
-0.90309888 -0.22784255 -1.1466548 4286147958
-0.91584742 -0.22350639 -1.149137 4288251792
-0.91240835 -0.22228444 -1.1468109 4285818483
-0.90920454 -0.22149305 -1.1455885 4286344829
-0.9026522 -0.22411603 -1.1462568 4284963173
-0.91588998 -0.21740526 -1.1490878 4288448656
-0.9123835 -0.21759804 -1.1472548 4284897124
-0.90847862 -0.21717077 -1.1457915 4286081654
-0.91588241 -0.21232373 -1.1492786 4290751662
-0.91242689 -0.21250737 -1.1474664 4286015603
-0.90758979 -0.21216406 -1.1463267 4285884018
-0.90447712 -0.21044506 -1.1458398 4286411134
-0.91563863 -0.20782669 -1.1492996 4289764518
-0.91266 -0.20748143 -1.1478093 4283909976
-0.9071508 -0.20766272 -1.1471622 4286214013
-0.90462279 -0.20836529 -1.1467384 4286674819
-0.91546279 -0.20275818 -1.1493942 4290949048
-0.91258419 -0.20227626 -1.1479063 4285555310
-0.90852898 -0.20301679 -1.1476209 4286411391
-0.90462631 -0.20251593 -1.1464059 4286477181
-0.91543341 -0.19833302 -1.1496677 4291935426
-0.91255528 -0.19735456 -1.1481781 4286475899
-0.90962952 -0.19713794 -1.1474482 4286279805
-0.90396589 -0.19608705 -1.1451439 4286083450
-0.91523844 -0.19433872 -1.149919 4293578447
-0.91272801 -0.19160026 -1.1481452 4287659658
-0.90941763 -0.19136076 -1.1454346 4286214013
-0.91523802 -0.18783641 -1.1498566 4294169556
-0.91310287 -0.18662925 -1.1483561 4288382608
-0.91555017 -0.18266279 -1.1497757 4292985801
-0.91305715 -0.18257679 -1.1476951 4288251281
-0.91583478 -0.17731719 -1.1493061 4292591556
-0.91279495 -0.17831714 -1.1471137 4286671736
-0.91101187 -0.17313372 -1.1479956 4287398800
-0.90979755 -0.17137092 -1.1463106 4287398800
-0.90916491 -0.16970377 -1.1455669 4287136398
-0.86664766 -0.79244262 -1.1425427 4286018661
-0.86346596 -0.7904672 -1.1435767 4285625183
-0.88333523 -0.73782021 -1.141854 4290157995
-0.88660902 -0.73079491 -1.1436142 4289368737
-0.88233072 -0.73198605 -1.1424836 4290420910
-0.87766403 -0.73268157 -1.1418157 4291538616
-0.87252748 -0.73157787 -1.1416111 4291405236
-0.86898476 -0.73201376 -1.1404023 4290352036
-0.88577604 -0.72580791 -1.1437247 4290027180
-0.88199687 -0.72686434 -1.1436797 4291408571
-0.87677163 -0.72894555 -1.1438262 4292129729
-0.87196833 -0.72634888 -1.1437145 4291405494
-0.86752772 -0.72627753 -1.1418415 4291339442
-0.86437273 -0.72507882 -1.1402092 4291931834
-0.88171691 -0.72354627 -1.1444939 4293448409
-0.87890506 -0.72341931 -1.1443169 4292392386
-0.87351233 -0.72200394 -1.1445806 4290287013
-0.86720473 -0.72242409 -1.1440231 4290219931
-0.86256742 -0.72239166 -1.1427164 4290549669
-0.85854137 -0.72131914 -1.1421717 4291273135
-0.85588956 -0.71820229 -1.1400272 4294627801
-0.88427371 -0.71233529 -1.1442542 4291012527
-0.88744086 -0.69078332 -1.1442848 4290618286
-0.8908807 -0.67173415 -1.1447449 4289697442
-0.89260101 -0.6681807 -1.1428922 4289763750
-0.8957755 -0.66161656 -1.1418592 4289172641
-0.89422995 -0.66215485 -1.1428901 4289500579
-0.89660901 -0.65760791 -1.1421894 4289040284
-0.90059853 -0.65106499 -1.1434597 4288383637
-0.89848638 -0.65384209 -1.1431 4288712601
-0.90520942 -0.64751071 -1.1445568 4288316051
-0.90245086 -0.64874482 -1.1424952 4288054416
-0.87296927 -0.64147049 -1.1413106 4291144115
-0.89005816 -0.6351074 -1.1402597 4292987102
-0.88698709 -0.63571113 -1.1421914 4293118689
-0.88257015 -0.63743168 -1.1423354 4292789460
-0.8775807 -0.63861769 -1.1425532 4290618032
-0.87459391 -0.63932663 -1.143088 4290815150
-0.89221382 -0.6321677 -1.1425308 4292987360
-0.88848042 -0.63416469 -1.1438105 4293315813
-0.90087569 -0.62598342 -1.1410936 4286343298
-0.89745933 -0.62735593 -1.1424805 4291738062
-0.89434838 -0.62908596 -1.1431968 4293118691
-0.90618664 -0.62141764 -1.1410439 4288054940
-0.90262163 -0.6227904 -1.1425953 4287133069
-0.88839072 -0.62026554 -1.1403139 4287009900
-0.91573906 -0.61579704 -1.1407168 4288844975
-0.91244733 -0.61663973 -1.1417822 4289370802
-0.90790218 -0.61801642 -1.1426058 4288318113
-0.90344059 -0.61745083 -1.1428831 4286475140
-0.89744455 -0.61618233 -1.1424299 4292066252
-0.89377481 -0.61674047 -1.1440935 4293449187
-0.88699144 -0.61929983 -1.1421992 4287339897
-0.92093086 -0.61074734 -1.1420292 4290817988
-0.91766232 -0.61232501 -1.1426165 4290095038
-0.91301024 -0.61320966 -1.143868 4289502645
-0.9074564 -0.613011 -1.1434399 4288514722
-0.90259492 -0.61313999 -1.1441505 4288184725
-0.89829582 -0.61369264 -1.1445035 4293774048
-0.92253834 -0.60886019 -1.1440339 4290555841
-0.91816795 -0.60922194 -1.1447663 4290160315
-0.91441917 -0.6099984 -1.1434994 4289896627
-0.91832417 -0.49590892 -1.1402223 4285949299
-1.1918601 -0.49112484 -1.1433545 4280758335
-1.187928 -0.49125904 -1.14305 4280693567
-0.93134862 -0.49090686 -1.1438704 4289311630
-0.92745006 -0.49257553 -1.1437677 4286941025
-0.92236805 -0.49168015 -1.1434782 4285694035
-0.9182393 -0.49154153 -1.1433007 4286679389
-0.91436356 -0.49399692 -1.1446235 4291934400
-1.1954175 -0.48778933 -1.1447045 4280430140
-1.1928959 -0.48719448 -1.1422912 4280627262
-1.1866422 -0.48952624 -1.1416174 4280759103
-1.1826814 -0.48812839 -1.1425917 4280889661
-1.1794446 -0.48594952 -1.1424575 4281086269
-1.1657474 -0.48512635 -1.1445794 4281152320
-1.1621735 -0.48615572 -1.1433924 4281217856
-1.1572336 -0.48801789 -1.1429849 4281218112
-1.1523657 -0.48719442 -1.1422747 4281284161
-1.1487801 -0.48559922 -1.1424396 4281415746
-0.93293673 -0.48719874 -1.1427126 4290494123
-0.92751014 -0.48844162 -1.1414016 4286151769
-0.92239273 -0.48847565 -1.1413038 4285101899
-0.91709107 -0.488626 -1.1419779 4285296973
-0.91374028 -0.48775363 -1.1417203 4285095518
-1.1964464 -0.48354223 -1.1434162 4280495161
-1.1936823 -0.48349044 -1.141381 4280627005
-1.1768214 -0.48464629 -1.1424969 4281152319
-1.1722871 -0.48278096 -1.1424757 4280824386
-1.1675564 -0.48236465 -1.1426711 4280889920
